-5.351225137710571289e-01 -5.433118939399719238e-01 nan nan nan -4.698700904846191406e-01 -5.369518995285034180e-01 -5.022354125976562500e-01 -4.825041890144348145e-01 -4.848818182945251465e-01 -5.177885890007019043e-01 -5.083268284797668457e-01 -4.631943404674530029e-01 -4.511313140392303467e-01 -4.478760659694671631e-01 -4.483678936958312988e-01 -4.463284909725189209e-01 -4.412385523319244385e-01 -4.308759272098541260e-01 -4.255983233451843262e-01 -4.236739873886108398e-01 -4.183086454868316650e-01 -4.109535813331604004e-01 -4.048914611339569092e-01 -4.039848446846008301e-01 -4.027412235736846924e-01 -3.947043120861053467e-01 -3.574237823486328125e-01 -2.098703533411026001e-01 -1.758295595645904541e-01 -1.763598620891571045e-01 -1.677951067686080933e-01 -1.344407498836517334e-01 -1.593631803989410400e-01 -3.109023272991180420e-01 -3.772239983081817627e-01 -3.834493160247802734e-01 -3.851644396781921387e-01 -3.853295445442199707e-01 -3.877593576908111572e-01 -3.889370858669281006e-01 -3.912960290908813477e-01 -3.926234841346740723e-01 -3.946125805377960205e-01 -4.023989737033843994e-01 -4.113402068614959717e-01 -4.190717339515686035e-01 -3.890510797500610352e-01 -2.289040684700012207e-01 -2.050809264183044434e-01 -3.645026981830596924e-01 -2.446018010377883911e-01 -2.404487580060958862e-01 -3.930436372756958008e-01 -4.619701802730560303e-01 -4.378704130649566650e-01 -4.460459053516387939e-01 -4.964209198951721191e-01 -5.154564380645751953e-01 -5.265796184539794922e-01
-5.253854990005493164e-01 -5.330708026885986328e-01 nan nan nan -3.579854667186737061e-01 -6.149584650993347168e-01 -5.181054472923278809e-01 -4.822882115840911865e-01 -5.421547293663024902e-01 -6.902489662170410156e-01 -6.775587201118469238e-01 -4.891548156738281250e-01 -4.441585838794708252e-01 -4.446149170398712158e-01 -4.424695968627929688e-01 -4.364536702632904053e-01 -4.303206801414489746e-01 -4.244038164615631104e-01 -4.205874502658843994e-01 -4.162847697734832764e-01 -4.097253680229187012e-01 -4.035816788673400879e-01 -3.982686698436737061e-01 -3.954575359821319580e-01 -3.899265527725219727e-01 -3.820045888423919678e-01 -3.716128468513488770e-01 -3.406843841075897217e-01 -3.340611159801483154e-01 -3.361381888389587402e-01 -3.076353073120117188e-01 -1.880857944488525391e-01 -1.728532016277313232e-01 -2.481766045093536377e-01 -3.517631590366363525e-01 -3.728735744953155518e-01 -3.765875399112701416e-01 -3.784789443016052246e-01 -3.807102739810943604e-01 -3.837433755397796631e-01 -3.861346542835235596e-01 -3.887782692909240723e-01 -3.909251391887664795e-01 -3.957814574241638184e-01 -3.994531035423278809e-01 -4.020282626152038574e-01 -4.001326262950897217e-01 -3.523132801055908203e-01 -2.559489905834197998e-01 -3.910278379917144775e-01 -4.049078822135925293e-01 -3.796314001083374023e-01 -3.096038699150085449e-01 -4.029015898704528809e-01 -2.925728559494018555e-01 -2.990753948688507080e-01 -4.619893431663513184e-01 -5.067411065101623535e-01 -5.167891383171081543e-01
-5.171495676040649414e-01 -5.255652666091918945e-01 -5.314713120460510254e-01 nan nan -4.546290040016174316e-01 -5.175567269325256348e-01 -4.837999641895294189e-01 -5.014328360557556152e-01 -6.532045602798461914e-01 -7.498703002929687500e-01 -7.106612920761108398e-01 -4.890854358673095703e-01 -4.337798655033111572e-01 -4.362688362598419189e-01 -4.290697276592254639e-01 -4.238663315773010254e-01 -4.208046793937683105e-01 -4.115718901157379150e-01 -4.057669341564178467e-01 -3.992846906185150146e-01 -3.916599452495574951e-01 -3.865032494068145752e-01 -3.785727024078369141e-01 -3.767138719558715820e-01 -3.729105591773986816e-01 -3.726807236671447754e-01 -3.938702046871185303e-01 -3.907187879085540771e-01 -3.648925125598907471e-01 -3.581382930278778076e-01 -3.512034416198730469e-01 -3.220323622226715088e-01 -3.467302024364471436e-01 -4.582380056381225586e-01 -3.821409940719604492e-01 -3.583007454872131348e-01 -3.612617254257202148e-01 -3.621770739555358887e-01 -3.653423190116882324e-01 -3.693268299102783203e-01 -3.710487186908721924e-01 -3.751910924911499023e-01 -3.791315853595733643e-01 -3.843992948532104492e-01 -3.918555080890655518e-01 -3.950016200542449951e-01 -3.974622189998626709e-01 -3.962940573692321777e-01 -3.782112598419189453e-01 -4.085244238376617432e-01 -4.276414811611175537e-01 -4.310633242130279541e-01 -4.150309264659881592e-01 -4.458163082599639893e-01 -4.275282025337219238e-01 -4.352467358112335205e-01 -4.796439409255981445e-01 -4.975835680961608887e-01 -5.074041485786437988e-01
-5.070510506629943848e-01 -5.137668848037719727e-01 nan nan nan nan nan -4.647643566131591797e-01 -4.697952866554260254e-01 -5.428198575973510742e-01 -7.085570693016052246e-01 -6.563604474067687988e-01 -4.706560671329498291e-01 -4.300164580345153809e-01 -4.253436326980590820e-01 -4.225372970104217529e-01 -4.170091748237609863e-01 -4.088429808616638184e-01 -3.996026217937469482e-01 -3.924781084060668945e-01 -3.875047862529754639e-01 -4.009123146533966064e-01 -3.768903911113739014e-01 -3.666481375694274902e-01 -3.608890771865844727e-01 -3.623239099979400635e-01 -4.014804363250732422e-01 -4.875906407833099365e-01 -4.815225005149841309e-01 -3.993102014064788818e-01 -3.788000047206878662e-01 -3.778617680072784424e-01 -3.748984336853027344e-01 -4.066330194473266602e-01 -5.028039216995239258e-01 -3.775936961174011230e-01 -3.439711928367614746e-01 -3.458835482597351074e-01 -3.472308814525604248e-01 -3.507102131843566895e-01 -3.556616902351379395e-01 -3.584393262863159180e-01 -3.628731369972229004e-01 -3.651667237281799316e-01 -3.701406419277191162e-01 -3.755130469799041748e-01 -3.817564249038696289e-01 -3.905453979969024658e-01 -3.963755667209625244e-01 -4.073877632617950439e-01 -4.351677894592285156e-01 -4.299924671649932861e-01 -4.365236461162567139e-01 -4.413239657878875732e-01 -4.562175571918487549e-01 -4.666358530521392822e-01 -4.726781249046325684e-01 -4.801143407821655273e-01 -4.896725714206695557e-01 -4.977568089962005615e-01
-4.960922002792358398e-01 -5.068968534469604492e-01 nan nan nan nan nan -4.555591642856597900e-01 nan nan nan -5.595766305923461914e-01 -4.499258995056152344e-01 -4.246645271778106689e-01 -4.174230992794036865e-01 -4.145373106002807617e-01 -4.034821987152099609e-01 -3.933478593826293945e-01 -3.835375010967254639e-01 -3.768695294857025146e-01 -4.005793333053588867e-01 -4.978655874729156494e-01 -3.907372355461120605e-01 -3.513388931751251221e-01 -3.401879966259002686e-01 -3.624087274074554443e-01 -4.534088969230651855e-01 -4.223935306072235107e-01 -4.232129454612731934e-01 -5.046339035034179688e-01 -5.145150423049926758e-01 -4.871786832809448242e-01 -4.846434593200683594e-01 -5.167986750602722168e-01 -5.190072059631347656e-01 -3.921321630477905273e-01 -3.590133786201477051e-01 -3.385036885738372803e-01 -3.348424434661865234e-01 -3.373315036296844482e-01 -3.414585292339324951e-01 -3.449803888797760010e-01 -3.489613831043243408e-01 -3.504763841629028320e-01 -3.555232286453247070e-01 -3.627513349056243896e-01 -3.689882755279541016e-01 -3.757010102272033691e-01 -3.822110891342163086e-01 -4.284554719924926758e-01 -5.895578861236572266e-01 -5.431438088417053223e-01 -4.752982854843139648e-01 -4.498709142208099365e-01 -4.505979120731353760e-01 -4.535834491252899170e-01 -4.604388177394866943e-01 -4.695963561534881592e-01 -4.818820655345916748e-01 -4.869521856307983398e-01
-4.921915233135223389e-01 -5.162923336029052734e-01 nan nan nan nan -4.515110254287719727e-01 -4.523901343345642090e-01 nan nan nan -8.099252581596374512e-01 -5.013127923011779785e-01 -4.189528226852416992e-01 -4.089238643646240234e-01 -4.009669125080108643e-01 -3.883399963378906250e-01 -3.762412071228027344e-01 -3.672080636024475098e-01 -3.551379442214965820e-01 -3.783549070358276367e-01 -4.915770888328552246e-01 -3.683382868766784668e-01 -3.387618958950042725e-01 -3.560077250003814697e-01 -3.660684227943420410e-01 -4.090290665626525879e-01 -4.938158690929412842e-01 -5.112079977989196777e-01 -5.419002175331115723e-01 -5.177271962165832520e-01 -4.057014882564544678e-01 -4.021805822849273682e-01 -5.087503790855407715e-01 -5.401069521903991699e-01 -4.991177618503570557e-01 -4.517729282379150391e-01 -3.665866851806640625e-01 -3.274967372417449951e-01 -3.292699754238128662e-01 -3.565047979354858398e-01 -3.659845888614654541e-01 -3.705931007862091064e-01 -3.735120296478271484e-01 -3.746288120746612549e-01 -3.562040328979492188e-01 -3.558295965194702148e-01 -3.633321523666381836e-01 -3.822561204433441162e-01 -5.107182264328002930e-01 -8.123543262481689453e-01 -8.288797736167907715e-01 -6.248667836189270020e-01 -4.984799623489379883e-01 -4.727070331573486328e-01 -4.549376964569091797e-01 -4.553841650485992432e-01 -4.731875956058502197e-01 -4.844155907630920410e-01 -4.842428863048553467e-01
nan nan nan nan nan nan -4.492468833923339844e-01 nan nan -2.233051210641860962e-01 -3.939654827117919922e-01 -4.881407022476196289e-01 -4.312455952167510986e-01 -4.068073332309722900e-01 -4.003670215606689453e-01 -3.891984224319458008e-01 -3.746547102928161621e-01 -3.632492423057556152e-01 -3.752933740615844727e-01 -3.500275313854217529e-01 -3.524750769138336182e-01 nan -3.721459805965423584e-01 -3.830574452877044678e-01 -4.728198647499084473e-01 -4.923095405101776123e-01 -4.951233267784118652e-01 -5.123434662818908691e-01 -5.058780908584594727e-01 -5.040381550788879395e-01 -4.958727359771728516e-01 -4.691052138805389404e-01 -4.691084027290344238e-01 -5.023576617240905762e-01 -5.391130447387695312e-01 -4.919859468936920166e-01 -4.103846251964569092e-01 -4.354692697525024414e-01 -3.345593810081481934e-01 -3.347694575786590576e-01 -4.596821367740631104e-01 -4.890126883983612061e-01 -4.771810770034790039e-01 -4.752623736858367920e-01 -4.654469192028045654e-01 -3.880797922611236572e-01 -3.507671952247619629e-01 -3.511167466640472412e-01 -4.147501289844512939e-01 -6.877927780151367188e-01 -8.383089900016784668e-01 -9.761737585067749023e-01 -1.009142756462097168e+00 -6.625168919563293457e-01 -4.935321211814880371e-01 -4.698808193206787109e-01 -4.586639404296875000e-01 -4.862829446792602539e-01 -4.965336024761199951e-01 -4.901477098464965820e-01
nan nan nan nan nan nan nan nan nan -3.594200611114501953e-01 nan -3.903546631336212158e-01 -3.885147869586944580e-01 -3.945898711681365967e-01 -3.891978561878204346e-01 -3.753975629806518555e-01 -3.689804375171661377e-01 -4.205887913703918457e-01 -4.744281768798828125e-01 -3.932048380374908447e-01 -3.930397629737854004e-01 -4.927942752838134766e-01 -4.961443245410919189e-01 -4.877543449401855469e-01 -5.087799429893493652e-01 -5.062820315361022949e-01 -4.934303164482116699e-01 -4.882764518260955811e-01 -4.826573133468627930e-01 -4.805448651313781738e-01 -4.794299900531768799e-01 -4.769991636276245117e-01 -4.678234755992889404e-01 -4.112139642238616943e-01 -3.511313498020172119e-01 -4.512757062911987305e-01 -4.679026901721954346e-01 -4.594489932060241699e-01 -3.492452800273895264e-01 -3.544372618198394775e-01 -4.768671691417694092e-01 -4.841794967651367188e-01 -4.029195606708526611e-01 -3.854193985462188721e-01 -4.096575975418090820e-01 -4.704402685165405273e-01 -3.835448324680328369e-01 -3.448520302772521973e-01 -3.624459803104400635e-01 -4.268878996372222900e-01 -5.441592335700988770e-01 -9.908066987991333008e-01 -1.146132946014404297e+00 -9.298848509788513184e-01 -5.232831835746765137e-01 -4.674077928066253662e-01 -4.582746624946594238e-01 -4.683057665824890137e-01 -5.039384961128234863e-01 nan
nan nan nan nan nan nan nan -2.411965727806091309e-01 -4.947362840175628662e-01 nan nan -3.470883071422576904e-01 -3.698346614837646484e-01 -3.856858313083648682e-01 -3.797655105590820312e-01 -3.669336438179016113e-01 -3.991434872150421143e-01 -5.834197402000427246e-01 -4.655356407165527344e-01 -4.833999872207641602e-01 -4.969498515129089355e-01 -5.094370841979980469e-01 -5.078796744346618652e-01 -4.998424351215362549e-01 -5.003769993782043457e-01 -4.956963360309600830e-01 -4.869404137134552002e-01 -4.796754121780395508e-01 -4.700729548931121826e-01 -4.668546319007873535e-01 -4.639564752578735352e-01 -4.587560296058654785e-01 -4.067179560661315918e-01 -1.964688599109649658e-01 -1.801015436649322510e-01 -4.088419675827026367e-01 -4.694697856903076172e-01 -4.677626192569732666e-01 -4.486666321754455566e-01 -4.545013606548309326e-01 -4.815801680088043213e-01 -4.869438707828521729e-01 -4.722661972045898438e-01 -4.717140197753906250e-01 -4.828373193740844727e-01 -5.081067681312561035e-01 -4.723953008651733398e-01 -3.852376937866210938e-01 -3.705417215824127197e-01 -3.537589311599731445e-01 -4.107769429683685303e-01 -7.167034745216369629e-01 -9.562857151031494141e-01 -6.286259293556213379e-01 -4.484884738922119141e-01 -4.643175601959228516e-01 -4.706607460975646973e-01 -4.749416708946228027e-01 nan nan
nan nan nan nan nan nan nan nan -8.677270412445068359e-01 nan -3.155618607997894287e-01 -2.261322587728500366e-01 -3.303935825824737549e-01 nan -3.658484518527984619e-01 -3.661888241767883301e-01 -4.015094935894012451e-01 -5.283334255218505859e-01 -5.162832736968994141e-01 -5.200666189193725586e-01 -5.166189670562744141e-01 -5.095308423042297363e-01 -5.000082254409790039e-01 -4.929827451705932617e-01 -4.880457520484924316e-01 -4.796860814094543457e-01 -4.725504517555236816e-01 -4.668848812580108643e-01 -4.609420895576477051e-01 -4.552704691886901855e-01 -4.487650394439697266e-01 -4.445729851722717285e-01 -3.937912881374359131e-01 -1.927747726440429688e-01 -1.925067901611328125e-01 -4.001454412937164307e-01 -4.545382857322692871e-01 -4.585022628307342529e-01 -4.588758647441864014e-01 -4.604957699775695801e-01 -4.648734629154205322e-01 -4.732481539249420166e-01 -4.866944253444671631e-01 -4.936031699180603027e-01 -5.004311203956604004e-01 -5.085391402244567871e-01 -5.104205608367919922e-01 -5.070302486419677734e-01 -5.235229134559631348e-01 -4.108454883098602295e-01 -4.141927659511566162e-01 -5.649584531784057617e-01 -6.753299236297607422e-01 -5.941174626350402832e-01 -4.665535390377044678e-01 -4.404022395610809326e-01 -4.441582560539245605e-01 nan nan nan
nan nan nan nan 1.515652090311050415e-01 1.122039034962654114e-01 -1.830227486789226532e-02 2.491968870162963867e-02 -1.899406760931015015e-01 -1.477781385183334351e-01 -2.244676053524017334e-01 -1.545813679695129395e-01 -2.842360436916351318e-01 -3.394771814346313477e-01 -3.552233874797821045e-01 -3.808982372283935547e-01 -4.828363656997680664e-01 -5.228524804115295410e-01 -5.300658941268920898e-01 -5.216593742370605469e-01 -5.066879391670227051e-01 -4.989965558052062988e-01 -4.916210174560546875e-01 -4.849448204040527344e-01 -4.768101274967193604e-01 -4.595046043395996094e-01 -4.484496116638183594e-01 -4.432366788387298584e-01 -4.402305781841278076e-01 -4.375383257865905762e-01 -4.349443316459655762e-01 -4.295768439769744873e-01 -4.183439314365386963e-01 -3.778244256973266602e-01 -3.795544207096099854e-01 -4.235584139823913574e-01 -4.661752879619598389e-01 -5.299625992774963379e-01 -5.299295186996459961e-01 -5.516155958175659180e-01 -5.572745203971862793e-01 -5.407347083091735840e-01 -5.485745668411254883e-01 -5.424234867095947266e-01 -4.934831857681274414e-01 -4.998560547828674316e-01 -5.331889390945434570e-01 -5.621289610862731934e-01 -6.531596779823303223e-01 -5.609426498413085938e-01 -5.235266685485839844e-01 -4.787807166576385498e-01 -5.893577337265014648e-01 -6.299081444740295410e-01 -6.221606731414794922e-01 nan nan nan nan nan
nan nan -4.383897483348846436e-01 -4.452896714210510254e-01 1.033875867724418640e-01 1.018187403678894043e-01 1.046613901853561401e-01 1.190043315291404724e-01 6.423312425613403320e-02 5.142651870846748352e-02 5.636764317750930786e-02 3.869511187076568604e-02 -1.396464258432388306e-01 -2.863036990165710449e-01 -3.422691524028778076e-01 -3.767548203468322754e-01 -4.982960224151611328e-01 -5.219995379447937012e-01 -5.197340846061706543e-01 -5.066973567008972168e-01 -5.000740885734558105e-01 -4.907312393188476562e-01 -4.722104370594024658e-01 -4.586684107780456543e-01 -4.512743055820465088e-01 -4.377756118774414062e-01 -4.148272275924682617e-01 -4.064457118511199951e-01 -4.033013880252838135e-01 -4.074015319347381592e-01 -4.053100049495697021e-01 -4.040424823760986328e-01 -4.040729999542236328e-01 -4.023760557174682617e-01 -3.992181718349456787e-01 -4.160260260105133057e-01 -5.597180128097534180e-01 -8.305115103721618652e-01 -8.241437673568725586e-01 -9.235232472419738770e-01 -1.000682353973388672e+00 -8.771925568580627441e-01 -8.789633512496948242e-01 -8.248440027236938477e-01 -5.306616425514221191e-01 -5.125718116760253906e-01 -6.802367568016052246e-01 -6.236138939857482910e-01 -5.729358196258544922e-01 -5.552551150321960449e-01 -5.665766000747680664e-01 -5.584858059883117676e-01 -5.964303016662597656e-01 -6.426805853843688965e-01 -7.098295092582702637e-01 -7.444802522659301758e-01 nan nan nan nan
nan -4.194946587085723877e-01 -4.301380217075347900e-01 -4.424200356006622314e-01 -5.463805794715881348e-02 -2.397271059453487396e-02 1.104210242629051208e-01 1.036560088396072388e-01 -4.124727845191955566e-02 6.093803327530622482e-03 1.234380304813385010e-01 6.235186383128166199e-02 -9.143734723329544067e-02 -1.760962009429931641e-01 -3.154914379119873047e-01 -3.825294375419616699e-01 -4.932680428028106689e-01 -5.148317217826843262e-01 -5.032956600189208984e-01 -4.966207444667816162e-01 -4.904847443103790283e-01 -4.805541634559631348e-01 -4.425417482852935791e-01 -4.327518343925476074e-01 -4.400131106376647949e-01 -4.346378147602081299e-01 -4.212194085121154785e-01 -4.104934036731719971e-01 -4.088629186153411865e-01 -4.056496620178222656e-01 -4.016636908054351807e-01 -3.989017903804779053e-01 -3.991109728813171387e-01 -3.932119905948638916e-01 -3.769243359565734863e-01 -3.778663277626037598e-01 -4.124740064144134521e-01 -4.760692119598388672e-01 -4.757985770702362061e-01 -5.863239765167236328e-01 -8.870529532432556152e-01 -7.024266719818115234e-01 nan -8.213947415351867676e-01 -5.205107927322387695e-01 -5.200861096382141113e-01 -8.306989669799804688e-01 -8.824236989021301270e-01 -6.045346856117248535e-01 -5.404801964759826660e-01 -5.598563551902770996e-01 -5.704272985458374023e-01 -6.086383461952209473e-01 -6.811847090721130371e-01 -7.181180119514465332e-01 nan nan nan nan nan
nan nan nan nan 1.003384143114089966e-01 1.039348170161247253e-01 1.322778612375259399e-01 1.017256975173950195e-01 -5.357509013265371323e-03 1.710903942584991455e-01 1.621861010789871216e-01 -4.109334200620651245e-02 -1.105346083641052246e-01 -1.501362770795822144e-01 -3.243532776832580566e-01 -4.649783372879028320e-01 -5.101026892662048340e-01 -5.059835314750671387e-01 -4.930445551872253418e-01 -4.818148314952850342e-01 -4.724338352680206299e-01 -5.059589147567749023e-01 -4.591836035251617432e-01 -4.602524936199188232e-01 -5.065932273864746094e-01 -5.070563554763793945e-01 -4.895204603672027588e-01 -4.795624017715454102e-01 -4.789820015430450439e-01 -4.792693257331848145e-01 -4.744833409786224365e-01 -4.699256122112274170e-01 -4.689267873764038086e-01 -4.535647034645080566e-01 -3.877505660057067871e-01 -3.810765743255615234e-01 -4.443662166595458984e-01 -3.942033946514129639e-01 -3.626440465450286865e-01 -3.899470269680023193e-01 -4.652386605739593506e-01 -4.272759258747100830e-01 -4.447313547134399414e-01 -5.871797204017639160e-01 -4.667176008224487305e-01 -4.548261463642120361e-01 -6.046442389488220215e-01 -8.286448121070861816e-01 -6.246093511581420898e-01 -5.443282127380371094e-01 -5.554278492927551270e-01 -5.846098065376281738e-01 -6.520489454269409180e-01 -6.935148239135742188e-01 nan nan nan nan nan nan
nan nan nan -4.524878561496734619e-01 1.004453748464584351e-01 9.102420508861541748e-02 7.258392870426177979e-02 1.146233007311820984e-01 6.839647144079208374e-02 -8.326993882656097412e-02 -2.063908427953720093e-01 -1.666527390480041504e-01 -1.503907293081283569e-01 -1.766065955162048340e-01 -3.302197158336639404e-01 -4.850373864173889160e-01 -5.092519521713256836e-01 -4.953089356422424316e-01 -4.721326529979705811e-01 -4.592249393463134766e-01 -4.608950614929199219e-01 -4.778888225555419922e-01 -5.214030742645263672e-01 -5.266025662422180176e-01 -5.312455296516418457e-01 -5.224240422248840332e-01 -5.048832893371582031e-01 -4.952259063720703125e-01 -4.932467639446258545e-01 -4.893714785575866699e-01 -4.816614985466003418e-01 -4.760971963405609131e-01 -4.749164879322052002e-01 -4.693096876144409180e-01 -4.298698306083679199e-01 -4.485945403575897217e-01 -7.995421290397644043e-01 -6.024307012557983398e-01 -4.712755084037780762e-01 -4.545562267303466797e-01 -4.289878606796264648e-01 -3.811774849891662598e-01 -4.051954448223114014e-01 -5.279857516288757324e-01 -4.423221051692962646e-01 -4.315460026264190674e-01 -4.911393821239471436e-01 -5.525116324424743652e-01 -5.627949833869934082e-01 -5.750318169593811035e-01 -6.167016029357910156e-01 -6.381709575653076172e-01 -6.643652915954589844e-01 nan nan nan nan nan nan nan
nan -6.792323589324951172e-01 -6.376535892486572266e-01 -4.742422699928283691e-01 -9.824356436729431152e-02 -1.601777821779251099e-01 -2.256237715482711792e-01 2.554778754711151123e-02 2.264961041510105133e-02 -2.763482630252838135e-01 -3.784915804862976074e-01 -3.476850092411041260e-01 -3.080316185951232910e-01 -2.970620095729827881e-01 -3.465912342071533203e-01 -4.727902114391326904e-01 -4.949469864368438721e-01 -4.855678081512451172e-01 -4.771215021610260010e-01 -4.805696904659271240e-01 -5.317277908325195312e-01 -5.370631814002990723e-01 -5.432216525077819824e-01 -5.315411686897277832e-01 -5.197720527648925781e-01 -5.077468752861022949e-01 -4.950765073299407959e-01 -4.894566833972930908e-01 -4.916922748088836670e-01 -4.780060350894927979e-01 -4.672712981700897217e-01 -4.619150161743164062e-01 -4.572699964046478271e-01 -4.542587697505950928e-01 -4.232884645462036133e-01 -4.402911961078643799e-01 -8.810365200042724609e-01 -9.259393215179443359e-01 -9.045664668083190918e-01 -8.906465172767639160e-01 -7.635302543640136719e-01 -4.815022647380828857e-01 -3.956179320812225342e-01 nan -4.487817883491516113e-01 -4.628038704395294189e-01 -5.498348474502563477e-01 -5.148617029190063477e-01 -5.160512924194335938e-01 nan nan nan nan nan nan nan nan -7.440968751907348633e-01 nan nan
nan nan nan -4.435390532016754150e-01 nan -3.663589358329772949e-01 -3.526344001293182373e-01 -1.711488664150238037e-01 -1.641309112310409546e-01 -3.594007194042205811e-01 -5.199327468872070312e-01 -5.105375051498413086e-01 -3.907733261585235596e-01 -3.547065556049346924e-01 -3.731471002101898193e-01 -4.725648164749145508e-01 -4.855188131332397461e-01 -4.818297028541564941e-01 -5.466700792312622070e-01 -5.511523485183715820e-01 -5.496585369110107422e-01 -5.477002263069152832e-01 -5.344524383544921875e-01 -5.222296714782714844e-01 -5.092179775238037109e-01 -4.994716942310333252e-01 -4.764162003993988037e-01 -4.783855676651000977e-01 -5.108941197395324707e-01 -5.121921300888061523e-01 -5.102599859237670898e-01 -5.085378885269165039e-01 -5.031271576881408691e-01 -4.843973815441131592e-01 -4.112293720245361328e-01 -4.297687113285064697e-01 -8.827088475227355957e-01 -9.306964874267578125e-01 -9.365302324295043945e-01 -1.008532166481018066e+00 -9.746721982955932617e-01 -7.314314842224121094e-01 nan -6.633394360542297363e-01 -6.246203184127807617e-01 -5.677835941314697266e-01 -5.852109193801879883e-01 -5.947340726852416992e-01 nan nan nan nan nan nan nan nan -7.082102298736572266e-01 -6.305178403854370117e-01 -6.000729203224182129e-01 nan
nan -6.935619115829467773e-01 nan -4.367661476135253906e-01 nan -4.455566704273223877e-01 -4.307562708854675293e-01 -3.881981670856475830e-01 -3.749297857284545898e-01 -4.244531095027923584e-01 -5.493344068527221680e-01 -5.583467483520507812e-01 -5.109966397285461426e-01 -4.880937933921813965e-01 -4.792762696743011475e-01 -4.828375875949859619e-01 -4.668230712413787842e-01 -4.840365648269653320e-01 -5.558658242225646973e-01 -5.587286353111267090e-01 -5.438652634620666504e-01 -5.352374911308288574e-01 -5.231767892837524414e-01 -5.086669325828552246e-01 -4.975707828998565674e-01 -5.259183645248413086e-01 -5.150068402290344238e-01 -5.133952498435974121e-01 -5.175911188125610352e-01 -5.130269527435302734e-01 -5.196903347969055176e-01 -5.227979421615600586e-01 -5.132660269737243652e-01 -4.728115499019622803e-01 -3.825339078903198242e-01 -3.985002338886260986e-01 -7.377045154571533203e-01 -5.591276288032531738e-01 -5.621240139007568359e-01 -8.522741198539733887e-01 -8.347522616386413574e-01 -5.287461876869201660e-01 -6.656556725502014160e-01 -7.378913760185241699e-01 -8.744922280311584473e-01 -6.432306766510009766e-01 -6.458521485328674316e-01 nan nan nan nan nan nan nan -8.799307346343994141e-01 -7.237624526023864746e-01 -6.622272729873657227e-01 -5.981548428535461426e-01 -5.946177840232849121e-01 -6.037289500236511230e-01
-6.331722140312194824e-01 -6.795275807380676270e-01 -6.577528119087219238e-01 -4.690223932266235352e-01 nan -6.251373291015625000e-01 -6.109611392021179199e-01 -5.887672901153564453e-01 -5.693629980087280273e-01 -5.558573007583618164e-01 -5.608432888984680176e-01 -5.506355762481689453e-01 -5.323266386985778809e-01 -5.142741799354553223e-01 -4.990741312503814697e-01 -4.919884204864501953e-01 -4.913123250007629395e-01 -5.290118455886840820e-01 -5.420437455177307129e-01 -5.499512553215026855e-01 -5.399105548858642578e-01 -5.260528326034545898e-01 -5.084315538406372070e-01 -4.982396960258483887e-01 -5.236985087394714355e-01 -5.375840663909912109e-01 -5.250173807144165039e-01 -5.191974043846130371e-01 -5.156254768371582031e-01 -4.993787705898284912e-01 -5.318834185600280762e-01 -5.401172041893005371e-01 -5.270460247993469238e-01 -4.618155956268310547e-01 -3.698762655258178711e-01 -3.502167463302612305e-01 -4.114245176315307617e-01 -3.693521618843078613e-01 -3.750149309635162354e-01 -4.427030980587005615e-01 -4.109569489955902100e-01 -4.270822107791900635e-01 -7.667806148529052734e-01 -6.920112371444702148e-01 -6.531945466995239258e-01 -7.120515108108520508e-01 -1.003527402877807617e+00 nan nan nan nan nan nan -5.035225152969360352e-01 -5.693342089653015137e-01 -6.174349188804626465e-01 -7.994764447212219238e-01 -6.381427049636840820e-01 -6.244649887084960938e-01 -6.160259246826171875e-01
-6.230316758155822754e-01 -6.500485539436340332e-01 -6.551718711853027344e-01 -4.703866541385650635e-01 -6.821215152740478516e-01 -6.599688529968261719e-01 -6.386012434959411621e-01 -6.207752823829650879e-01 -6.038033366203308105e-01 -5.890954732894897461e-01 -5.911483764648437500e-01 -5.748115777969360352e-01 -5.491372346878051758e-01 -5.286381244659423828e-01 -5.282998681068420410e-01 -5.939952731132507324e-01 -5.832803249359130859e-01 -4.865502715110778809e-01 -4.560410082340240479e-01 -5.200619101524353027e-01 -5.278473496437072754e-01 -5.094679594039916992e-01 -5.404962897300720215e-01 -5.456352829933166504e-01 -5.432689785957336426e-01 -5.406840443611145020e-01 -5.307130217552185059e-01 -5.210103988647460938e-01 -5.306641459465026855e-01 -5.306887626647949219e-01 -5.424438714981079102e-01 -5.439592003822326660e-01 -5.302546024322509766e-01 -4.955862760543823242e-01 -4.301131367683410645e-01 -3.790328800678253174e-01 -3.668749332427978516e-01 -3.681321442127227783e-01 -3.659305870532989502e-01 -3.684480488300323486e-01 -3.619767725467681885e-01 -4.106031060218811035e-01 -5.467280149459838867e-01 -6.503767371177673340e-01 -7.101113200187683105e-01 -1.011996507644653320e+00 -1.156334757804870605e+00 nan nan -8.948134779930114746e-01 nan -6.214178800582885742e-01 nan -4.992768764495849609e-01 -5.524022579193115234e-01 -5.432647466659545898e-01 -5.940465927124023438e-01 -6.048188805580139160e-01 -7.169932126998901367e-01 -6.337688565254211426e-01
-6.135891079902648926e-01 -6.384044885635375977e-01 -6.397595405578613281e-01 -4.592596590518951416e-01 -6.748057603836059570e-01 -6.526715755462646484e-01 -6.402087807655334473e-01 -6.441124081611633301e-01 -6.268281936645507812e-01 -6.334532499313354492e-01 -7.149016261100769043e-01 -7.151252627372741699e-01 -6.887521743774414062e-01 -6.615025401115417480e-01 -6.385964751243591309e-01 -6.256049871444702148e-01 -6.109834909439086914e-01 -5.608775615692138672e-01 -4.669581651687622070e-01 -5.141990184783935547e-01 -5.302506089210510254e-01 -5.135411620140075684e-01 -5.504216551780700684e-01 -5.579910874366760254e-01 -5.580846667289733887e-01 -5.680820345878601074e-01 -5.606591105461120605e-01 -5.500323176383972168e-01 -5.447086691856384277e-01 -5.444520115852355957e-01 -5.579193234443664551e-01 -5.580505132675170898e-01 -5.511023998260498047e-01 -5.504698753356933594e-01 -5.409539341926574707e-01 -5.218464732170104980e-01 -4.931053519248962402e-01 -4.825409352779388428e-01 -4.501522779464721680e-01 -4.399315714836120605e-01 -4.217628240585327148e-01 -5.024443864822387695e-01 -6.111644506454467773e-01 -8.449475169181823730e-01 nan nan nan nan nan -7.876764535903930664e-01 -6.245030164718627930e-01 -6.054965257644653320e-01 -5.958912372589111328e-01 -5.704632997512817383e-01 -7.298024892807006836e-01 -5.621230602264404297e-01 -5.278192758560180664e-01 -5.571179986000061035e-01 -6.042964458465576172e-01 -5.958712100982666016e-01
-6.079550385475158691e-01 -6.290652155876159668e-01 -6.043105125427246094e-01 -4.440956115722656250e-01 -6.660099029541015625e-01 -6.193633079528808594e-01 -6.429149508476257324e-01 -7.571287155151367188e-01 -7.644931674003601074e-01 -7.305724024772644043e-01 -7.527466416358947754e-01 -7.390795946121215820e-01 -7.111598253250122070e-01 -6.866025328636169434e-01 -6.546957492828369141e-01 -6.319038271903991699e-01 -6.437450051307678223e-01 -6.643570661544799805e-01 -5.650173425674438477e-01 -5.556187629699707031e-01 -5.920253396034240723e-01 -5.871227383613586426e-01 -5.759486556053161621e-01 -5.717897415161132812e-01 -5.875053405761718750e-01 -5.856811404228210449e-01 -5.779740810394287109e-01 -5.795857906341552734e-01 -5.743485093116760254e-01 -5.679985284805297852e-01 -5.753356218338012695e-01 -5.799796581268310547e-01 -5.858985781669616699e-01 -5.913109183311462402e-01 -5.889596939086914062e-01 -5.825922489166259766e-01 -5.715997219085693359e-01 -5.644128322601318359e-01 -5.501619577407836914e-01 -5.480312108993530273e-01 -5.670374631881713867e-01 -6.144905686378479004e-01 -6.888920068740844727e-01 -7.655773162841796875e-01 -8.763964176177978516e-01 -5.955359339714050293e-01 -7.008191943168640137e-01 -6.706464886665344238e-01 -5.516978502273559570e-01 -5.774142742156982422e-01 -5.711545944213867188e-01 -5.870772004127502441e-01 -6.132057309150695801e-01 -6.079474687576293945e-01 -5.654497146606445312e-01 -5.148541331291198730e-01 -5.196935534477233887e-01 -5.399551987648010254e-01 -5.614251494407653809e-01 -5.825799107551574707e-01
-5.986638665199279785e-01 -6.243481040000915527e-01 -6.021558642387390137e-01 -4.720201194286346436e-01 nan -6.287609934806823730e-01 -6.592463850975036621e-01 -7.742686271667480469e-01 -7.346935272216796875e-01 -6.406485438346862793e-01 -7.132537961006164551e-01 -7.194171547889709473e-01 -6.987506151199340820e-01 -7.201485037803649902e-01 -6.509369611740112305e-01 -6.608602404594421387e-01 -7.118587493896484375e-01 -7.019423842430114746e-01 -6.633276343345642090e-01 -6.502824425697326660e-01 -6.430652737617492676e-01 -6.567911505699157715e-01 -6.431017518043518066e-01 -6.199382543563842773e-01 -6.128029227256774902e-01 -6.137701272964477539e-01 -6.016652584075927734e-01 -5.935686826705932617e-01 -5.948255658149719238e-01 -5.927124023437500000e-01 -5.936995744705200195e-01 -6.145252585411071777e-01 -6.377682685852050781e-01 -6.397177577018737793e-01 -6.193388104438781738e-01 -6.018816232681274414e-01 -5.734696984291076660e-01 -5.080551505088806152e-01 -4.867307245731353760e-01 -4.844537377357482910e-01 -5.818217396736145020e-01 -6.396271586418151855e-01 -6.978954672813415527e-01 -5.832008123397827148e-01 -6.794716119766235352e-01 -5.461273193359375000e-01 -5.898582935333251953e-01 -5.944275856018066406e-01 -5.415800213813781738e-01 -5.439505577087402344e-01 -5.570212602615356445e-01 -5.813291668891906738e-01 -6.008492112159729004e-01 -6.127980351448059082e-01 -5.330576896667480469e-01 -5.021172165870666504e-01 -5.148898363113403320e-01 -5.339180231094360352e-01 -5.542612671852111816e-01 -5.742506980895996094e-01
-5.913589000701904297e-01 -6.135855913162231445e-01 -6.293956041336059570e-01 -6.142110228538513184e-01 nan -8.046508431434631348e-01 -8.424570560455322266e-01 -7.892434597015380859e-01 -6.587897539138793945e-01 -7.095062136650085449e-01 -7.207134366035461426e-01 -6.648576259613037109e-01 -6.872105002403259277e-01 -8.711264133453369141e-01 -6.788291335105895996e-01 -7.094069123268127441e-01 -7.159292697906494141e-01 -6.989573836326599121e-01 -6.775456666946411133e-01 -7.185102105140686035e-01 -6.988101005554199219e-01 -6.825540661811828613e-01 -6.795006990432739258e-01 -6.796619892120361328e-01 -6.609780788421630859e-01 -6.437821984291076660e-01 -6.380805373191833496e-01 -6.213054656982421875e-01 -6.197474598884582520e-01 -6.274853348731994629e-01 -6.422448158264160156e-01 -6.560086011886596680e-01 -6.686822772026062012e-01 -6.539567708969116211e-01 -6.520720124244689941e-01 -6.430712938308715820e-01 -5.489788651466369629e-01 -1.993111371994018555e-01 -1.252401322126388550e-01 -1.645003259181976318e-01 -3.555010259151458740e-01 -5.143669843673706055e-01 -7.682250738143920898e-01 -5.724632143974304199e-01 -6.028165221214294434e-01 -5.951837301254272461e-01 -5.783962607383728027e-01 -5.882888436317443848e-01 -5.925419330596923828e-01 -6.061120629310607910e-01 -5.747267603874206543e-01 -5.794557332992553711e-01 -5.947600007057189941e-01 -6.131089329719543457e-01 -6.031769514083862305e-01 -5.250211358070373535e-01 -5.337814688682556152e-01 -5.358616709709167480e-01 -5.505357384681701660e-01 -5.699884891510009766e-01
-5.861449241638183594e-01 -6.088588237762451172e-01 -6.368597149848937988e-01 -6.496043801307678223e-01 nan -9.157165884971618652e-01 -8.911405205726623535e-01 -8.600303530693054199e-01 -7.407051324844360352e-01 -7.599231600761413574e-01 -8.278894424438476562e-01 -6.996145248413085938e-01 -6.928403973579406738e-01 -8.255879878997802734e-01 -7.057414054870605469e-01 -6.669394969940185547e-01 -6.514042615890502930e-01 -6.179936528205871582e-01 -5.669705867767333984e-01 -6.479316353797912598e-01 -6.717282533645629883e-01 -6.820284128189086914e-01 -7.082197070121765137e-01 -7.116706967353820801e-01 -7.087201476097106934e-01 -6.773933172225952148e-01 -6.495429277420043945e-01 -6.438807249069213867e-01 -6.551591753959655762e-01 -6.457597613334655762e-01 -6.789628863334655762e-01 -6.979560852050781250e-01 -7.064580917358398438e-01 -6.928609609603881836e-01 -6.894385814666748047e-01 -6.706151366233825684e-01 -5.750799179077148438e-01 -1.449754834175109863e-01 -7.485544681549072266e-02 -8.774594962596893311e-02 -1.538041830062866211e-01 -4.389674663543701172e-01 -6.680951714515686035e-01 -6.372263431549072266e-01 -6.337878704071044922e-01 -6.324257254600524902e-01 -6.252767443656921387e-01 -6.119314432144165039e-01 -6.167429685592651367e-01 -6.338388919830322266e-01 -6.387432217597961426e-01 -5.963011980056762695e-01 -5.959825515747070312e-01 -6.121618151664733887e-01 -6.125398874282836914e-01 -5.602167248725891113e-01 -6.199158430099487305e-01 -5.579657554626464844e-01 -5.548726320266723633e-01 -5.688903927803039551e-01
-5.911166667938232422e-01 -6.068851947784423828e-01 -6.283966898918151855e-01 -6.421223282814025879e-01 nan -8.570781946182250977e-01 -8.167644739151000977e-01 -8.521584868431091309e-01 -7.798125147819519043e-01 -7.921553850173950195e-01 -8.195483088493347168e-01 -8.096672296524047852e-01 -8.008353114128112793e-01 -7.759159803390502930e-01 -6.661278605461120605e-01 -6.661102771759033203e-01 -6.215326189994812012e-01 -4.599090814590454102e-01 -4.438802897930145264e-01 -4.108266830444335938e-01 -5.287706851959228516e-01 -6.471118330955505371e-01 -7.157415151596069336e-01 -7.359258532524108887e-01 -7.524781823158264160e-01 -7.291555404663085938e-01 -7.103983163833618164e-01 -7.044955492019653320e-01 -7.053749561309814453e-01 -7.024311423301696777e-01 -7.093682885169982910e-01 -7.208710312843322754e-01 -7.375348806381225586e-01 -7.476446032524108887e-01 -7.361453175544738770e-01 -7.195013761520385742e-01 -6.230685710906982422e-01 -1.856492608785629272e-01 -9.057539701461791992e-02 -9.248118102550506592e-02 -1.828521490097045898e-01 -5.538666248321533203e-01 -6.736407876014709473e-01 -6.761745214462280273e-01 -6.641372442245483398e-01 -6.695899367332458496e-01 -6.617933511734008789e-01 -6.634348034858703613e-01 -6.755355000495910645e-01 -6.593871712684631348e-01 -6.658722758293151855e-01 -6.603932976722717285e-01 -6.231326460838317871e-01 -6.393155455589294434e-01 -6.347028613090515137e-01 -6.432965397834777832e-01 -6.600609421730041504e-01 -5.886382460594177246e-01 -5.871810317039489746e-01 -6.024405956268310547e-01
-6.536763906478881836e-01 -6.548466682434082031e-01 -6.615644097328186035e-01 -6.497211456298828125e-01 nan -8.435178995132446289e-01 -8.081989288330078125e-01 -8.237853646278381348e-01 -7.875103354454040527e-01 -7.627553343772888184e-01 -7.755764126777648926e-01 -8.507012128829956055e-01 -8.335231542587280273e-01 -8.405838012695312500e-01 -7.569665312767028809e-01 -7.884430885314941406e-01 -6.969745159149169922e-01 -4.046841859817504883e-01 -3.224551081657409668e-01 -2.592491209506988525e-01 -3.763288557529449463e-01 -6.098256707191467285e-01 -7.073222398757934570e-01 -7.573686242103576660e-01 -8.545936942100524902e-01 -8.439942598342895508e-01 -8.348695635795593262e-01 -8.518045544624328613e-01 -8.516040444374084473e-01 -8.566774129867553711e-01 -8.557654619216918945e-01 -8.530554175376892090e-01 -8.625515103340148926e-01 -8.647381067276000977e-01 -7.766465544700622559e-01 -7.497377991676330566e-01 -6.661248207092285156e-01 -3.186610937118530273e-01 -2.061085253953933716e-01 -1.357605010271072388e-01 -2.550913095474243164e-01 -6.172903776168823242e-01 -7.023031115531921387e-01 -7.070396542549133301e-01 -7.095275521278381348e-01 -7.041400074958801270e-01 -7.095213532447814941e-01 -7.039684653282165527e-01 -7.106932401657104492e-01 -7.168735265731811523e-01 -6.949414014816284180e-01 -6.964997649192810059e-01 -7.138012647628784180e-01 -7.313594222068786621e-01 -6.788767576217651367e-01 -6.760268211364746094e-01 -6.900678873062133789e-01 -6.997061967849731445e-01 -7.210972309112548828e-01 -7.305858135223388672e-01
-7.811294198036193848e-01 -8.162437081336975098e-01 -8.074050545692443848e-01 -6.944182515144348145e-01 nan -8.514806628227233887e-01 -8.309651017189025879e-01 -8.182228803634643555e-01 -7.888483405113220215e-01 -7.511152625083923340e-01 -7.544923424720764160e-01 -8.153890371322631836e-01 -8.127343058586120605e-01 -8.112537264823913574e-01 -7.854195237159729004e-01 -7.730258703231811523e-01 -6.698306798934936523e-01 -3.339476287364959717e-01 -2.473712265491485596e-01 -2.534433305263519287e-01 -3.644653856754302979e-01 -6.098796725273132324e-01 -7.102338075637817383e-01 -7.574049234390258789e-01 -8.259261250495910645e-01 -7.538264393806457520e-01 -7.545257806777954102e-01 -8.685563802719116211e-01 -8.853992223739624023e-01 -9.139673709869384766e-01 -9.120848774909973145e-01 -8.830697536468505859e-01 -8.702298998832702637e-01 -8.206206560134887695e-01 -7.861112952232360840e-01 -7.815257906913757324e-01 -7.748101353645324707e-01 -7.053328752517700195e-01 -6.074324846267700195e-01 -3.233293890953063965e-01 -3.450535535812377930e-01 -6.530385017395019531e-01 -7.267993092536926270e-01 -7.223497033119201660e-01 -7.389629483222961426e-01 -7.454627752304077148e-01 -7.455087304115295410e-01 -7.457243204116821289e-01 -7.265505790710449219e-01 -7.450240254402160645e-01 -7.542181611061096191e-01 -7.265880703926086426e-01 -7.402406334877014160e-01 -7.624379992485046387e-01 -7.634235620498657227e-01 -7.113434076309204102e-01 -7.187889814376831055e-01 -7.358521819114685059e-01 -7.566691637039184570e-01 -7.771463394165039062e-01
-8.116896152496337891e-01 -8.453863859176635742e-01 -8.384305834770202637e-01 -7.361928224563598633e-01 nan -8.515820503234863281e-01 -8.465344309806823730e-01 -8.198077678680419922e-01 -7.860618233680725098e-01 -7.499523758888244629e-01 -7.310622334480285645e-01 -7.286437153816223145e-01 -7.851769924163818359e-01 -7.915596365928649902e-01 -7.776812911033630371e-01 -7.440732717514038086e-01 -6.518917083740234375e-01 -4.302420616149902344e-01 -3.818368017673492432e-01 -4.380312561988830566e-01 -5.034907460212707520e-01 -6.773582696914672852e-01 -7.384949922561645508e-01 -7.434922456741333008e-01 -7.377101182937622070e-01 -7.108655571937561035e-01 -7.381183505058288574e-01 -8.533539175987243652e-01 -8.794612884521484375e-01 -8.850988745689392090e-01 -8.660327196121215820e-01 -8.224580883979797363e-01 -7.581291794776916504e-01 -5.237429141998291016e-01 -5.357901453971862793e-01 -8.005703687667846680e-01 -8.154022097587585449e-01 -8.033501505851745605e-01 -7.640327811241149902e-01 -6.780667304992675781e-01 -6.768618226051330566e-01 -7.371279001235961914e-01 -7.412940859794616699e-01 -7.422072291374206543e-01 -7.541376948356628418e-01 -7.699400782585144043e-01 -7.829186320304870605e-01 -7.707551717758178711e-01 -7.516206502914428711e-01 -7.620715498924255371e-01 -7.877620458602905273e-01 -7.934367656707763672e-01 -7.679848670959472656e-01 -7.737790346145629883e-01 -8.026144504547119141e-01 -8.213232159614562988e-01 -8.280416131019592285e-01 -7.595076560974121094e-01 -7.559054493904113770e-01 -7.861309647560119629e-01
-8.061174750328063965e-01 -8.451951146125793457e-01 -8.654830455780029297e-01 -8.599798679351806641e-01 -6.907140612602233887e-01 -8.018260002136230469e-01 -8.436394333839416504e-01 -8.217270374298095703e-01 -7.892857193946838379e-01 -7.598964571952819824e-01 -7.238310575485229492e-01 -6.886596083641052246e-01 -7.072612047195434570e-01 -7.699395418167114258e-01 -7.725254893302917480e-01 -7.360324859619140625e-01 -6.879690289497375488e-01 -6.247110366821289062e-01 -5.948739647865295410e-01 -6.598975658416748047e-01 -7.177522182464599609e-01 -7.373638749122619629e-01 -7.477295994758605957e-01 -7.580180168151855469e-01 -8.207058310508728027e-01 -8.336881995201110840e-01 -8.514119386672973633e-01 -8.764081001281738281e-01 -8.805142641067504883e-01 -8.763847947120666504e-01 -8.587698936462402344e-01 -8.154151439666748047e-01 -7.974931001663208008e-01 -7.418655157089233398e-01 -7.404009699821472168e-01 -7.571612596511840820e-01 -6.078627109527587891e-01 -8.235278129577636719e-01 -8.111453056335449219e-01 -7.699983119964599609e-01 -7.549350261688232422e-01 -7.624685764312744141e-01 -7.558174729347229004e-01 -7.798889279365539551e-01 -7.698222398757934570e-01 -7.860381007194519043e-01 -7.970221042633056641e-01 -7.889538407325744629e-01 -7.922948598861694336e-01 -7.883794307708740234e-01 -8.110528588294982910e-01 -8.308492302894592285e-01 -8.442755937576293945e-01 -7.932012677192687988e-01 -8.129731416702270508e-01 -8.426927328109741211e-01 -8.606669306755065918e-01 -7.857234477996826172e-01 -7.655788660049438477e-01 -7.790317535400390625e-01
-8.112817406654357910e-01 -8.417014479637145996e-01 -8.746081590652465820e-01 -8.925185799598693848e-01 -6.465223431587219238e-01 -6.577823758125305176e-01 -8.124752640724182129e-01 -8.232277035713195801e-01 -7.906154990196228027e-01 -7.589941620826721191e-01 -7.219767570495605469e-01 -6.841341257095336914e-01 -6.876066923141479492e-01 -7.657844424247741699e-01 -7.729577422142028809e-01 -7.363876104354858398e-01 -7.003453969955444336e-01 -6.653735637664794922e-01 -6.504634618759155273e-01 -7.140106558799743652e-01 -7.612297534942626953e-01 -7.521724700927734375e-01 -7.572830915451049805e-01 -7.748345732688903809e-01 -7.988386154174804688e-01 -8.234906792640686035e-01 -8.785139918327331543e-01 -8.723738193511962891e-01 -8.589060902595520020e-01 -8.814598917961120605e-01 -8.778733015060424805e-01 -8.404871821403503418e-01 -8.511814475059509277e-01 -8.546370267868041992e-01 -8.265449404716491699e-01 -7.966031432151794434e-01 -7.306947112083435059e-01 -8.265134692192077637e-01 -8.181030154228210449e-01 -7.771878838539123535e-01 -7.611498236656188965e-01 -7.828344106674194336e-01 -7.663064599037170410e-01 -8.013657927513122559e-01 -7.803978919982910156e-01 -7.932969927787780762e-01 -8.046690225601196289e-01 -7.997950911521911621e-01 -8.078884482383728027e-01 -7.974041104316711426e-01 -8.159226775169372559e-01 -8.400994539260864258e-01 -8.664848208427429199e-01 -8.061150312423706055e-01 -8.157687187194824219e-01 -8.505078554153442383e-01 -8.931584358215332031e-01 -8.807398676872253418e-01 -7.969464063644409180e-01 -7.904823422431945801e-01
-8.231432437896728516e-01 -8.425105214118957520e-01 -8.673796057701110840e-01 -8.976399302482604980e-01 nan -6.214265823364257812e-01 -8.052835464477539062e-01 -8.272830247879028320e-01 -7.935717105865478516e-01 -7.600212693214416504e-01 -7.241470813751220703e-01 -7.013345956802368164e-01 -6.920914649963378906e-01 -7.780067324638366699e-01 -7.781435251235961914e-01 -7.395148277282714844e-01 -7.062672972679138184e-01 -6.841297149658203125e-01 -7.111257910728454590e-01 -7.348192930221557617e-01 -7.735391259193420410e-01 -7.601162791252136230e-01 -7.791206240653991699e-01 -8.571785688400268555e-01 -8.818571567535400391e-01 -8.837336301803588867e-01 -8.799425363540649414e-01 -7.873894572257995605e-01 -7.477706670761108398e-01 -9.035333395004272461e-01 -9.212783575057983398e-01 -8.464952111244201660e-01 -8.326401114463806152e-01 -8.579353690147399902e-01 -8.551510572433471680e-01 -8.056122660636901855e-01 -6.250185370445251465e-01 -6.263095140457153320e-01 -8.129661083221435547e-01 -7.906758785247802734e-01 -7.720506191253662109e-01 -7.962359189987182617e-01 -7.742965221405029297e-01 -8.133640885353088379e-01 -7.916605472564697266e-01 -8.024155497550964355e-01 -8.115442991256713867e-01 -8.040035367012023926e-01 -8.217477202415466309e-01 -8.129349350929260254e-01 -8.164852857589721680e-01 -8.471159338951110840e-01 -8.765581846237182617e-01 -8.131865859031677246e-01 -8.174185752868652344e-01 -8.572800159454345703e-01 -9.023883342742919922e-01 -8.940183520317077637e-01 -8.238303661346435547e-01 -8.076950311660766602e-01
-8.271217942237854004e-01 -8.455405831336975098e-01 -8.708381056785583496e-01 nan nan -6.677542328834533691e-01 -8.206625580787658691e-01 -8.326966762542724609e-01 -7.959350943565368652e-01 -7.589294910430908203e-01 -7.230943441390991211e-01 -7.071443796157836914e-01 -7.123602032661437988e-01 -7.862376570701599121e-01 -7.846887707710266113e-01 -7.458138465881347656e-01 -7.133877873420715332e-01 -6.913834810256958008e-01 -6.980247497558593750e-01 -7.365362048149108887e-01 -7.827116847038269043e-01 -7.667592763900756836e-01 -7.726644873619079590e-01 -8.094397187232971191e-01 -8.995202779769897461e-01 -9.091102480888366699e-01 -8.923969864845275879e-01 -8.651998639106750488e-01 -8.625973463058471680e-01 -9.038648009300231934e-01 -9.123609066009521484e-01 -8.897763490676879883e-01 -8.440283536911010742e-01 -8.356308937072753906e-01 -7.971245646476745605e-01 -7.608618140220642090e-01 -7.199736237525939941e-01 -6.602872610092163086e-01 -7.201368808746337891e-01 -7.589110732078552246e-01 -7.698857188224792480e-01 -7.855618596076965332e-01 -7.797263264656066895e-01 -8.195864558219909668e-01 -8.093895316123962402e-01 -8.183213472366333008e-01 -8.236859440803527832e-01 -8.212808966636657715e-01 -8.425020575523376465e-01 -8.565136194229125977e-01 -8.300514817237854004e-01 -8.521956801414489746e-01 -8.821850419044494629e-01 -8.228503465652465820e-01 -8.228176832199096680e-01 -8.609822988510131836e-01 -8.905768990516662598e-01 -8.538369536399841309e-01 -8.991677761077880859e-01 -8.348318934440612793e-01
-8.314945697784423828e-01 -8.493291139602661133e-01 -8.795456290245056152e-01 -9.123873114585876465e-01 nan -8.411228656768798828e-01 -8.279183506965637207e-01 -8.270282149314880371e-01 -7.960107922554016113e-01 -7.573099732398986816e-01 -7.263032793998718262e-01 -7.263512611389160156e-01 -7.986545562744140625e-01 -8.124816417694091797e-01 -7.922589778900146484e-01 -7.513152360916137695e-01 -7.150382399559020996e-01 -7.041583061218261719e-01 -7.476823925971984863e-01 -7.501068711280822754e-01 -7.802599072456359863e-01 -7.689769268035888672e-01 -7.677224874496459961e-01 -7.989279627799987793e-01 -9.228562116622924805e-01 -9.391028285026550293e-01 -9.141806960105895996e-01 -9.074590206146240234e-01 -9.184101819992065430e-01 -9.206314086914062500e-01 -9.212810397148132324e-01 -9.194583892822265625e-01 -9.017503261566162109e-01 -8.310174345970153809e-01 -5.285638570785522461e-01 -3.915174007415771484e-01 -4.974784553050994873e-01 -5.982007980346679688e-01 -6.492998600006103516e-01 -7.383980751037597656e-01 -7.614049315452575684e-01 -7.594091296195983887e-01 -7.777141928672790527e-01 -8.006764054298400879e-01 -8.144823908805847168e-01 -8.264343738555908203e-01 -8.332818746566772461e-01 -8.367654681205749512e-01 -8.421149253845214844e-01 -8.320878744125366211e-01 -8.333755135536193848e-01 -8.579190373420715332e-01 -8.863307833671569824e-01 -8.304174542427062988e-01 -8.290532827377319336e-01 -8.661997318267822266e-01 -9.043233394622802734e-01 -9.242675900459289551e-01 -9.203540086746215820e-01 -8.420861363410949707e-01
-8.409390449523925781e-01 -8.552284240722656250e-01 -8.857363462448120117e-01 -9.202633500099182129e-01 nan -8.631603717803955078e-01 -7.272675633430480957e-01 -7.996204495429992676e-01 -7.945922613143920898e-01 -7.701499462127685547e-01 -7.588189244270324707e-01 -7.331445813179016113e-01 -8.026463389396667480e-01 -8.120842576026916504e-01 -7.974074482917785645e-01 -7.599723339080810547e-01 -7.199721336364746094e-01 -7.127383947372436523e-01 -7.664441466331481934e-01 -7.465201616287231445e-01 -7.400553822517395020e-01 -7.588903307914733887e-01 -7.579145431518554688e-01 -7.973285913467407227e-01 -9.174368381500244141e-01 -9.601722359657287598e-01 -9.559580087661743164e-01 -9.403291940689086914e-01 -8.908612728118896484e-01 -8.924922347068786621e-01 -9.331818222999572754e-01 -9.389643073081970215e-01 -9.228101968765258789e-01 -8.240185976028442383e-01 -4.405083656311035156e-01 -3.479655981063842773e-01 -4.162056446075439453e-01 -4.674320220947265625e-01 -5.569747686386108398e-01 -7.248546481132507324e-01 -7.737082242965698242e-01 -7.683258056640625000e-01 -7.902058362960815430e-01 -8.018644452095031738e-01 -8.247423171997070312e-01 -8.298875689506530762e-01 -8.274141550064086914e-01 -8.431956768035888672e-01 -8.491156101226806641e-01 -8.322200775146484375e-01 -8.476746082305908203e-01 -8.623659014701843262e-01 -8.800322413444519043e-01 -8.332819938659667969e-01 -8.365950584411621094e-01 -8.816027045249938965e-01 -9.623302221298217773e-01 -9.420079588890075684e-01 -8.423222303390502930e-01 -8.311759233474731445e-01
-8.472678065299987793e-01 -8.617095947265625000e-01 -8.915997147560119629e-01 -9.254025816917419434e-01 -9.268122911453247070e-01 -8.982648849487304688e-01 -8.413611650466918945e-01 -8.237606287002563477e-01 -8.028264045715332031e-01 -8.042690157890319824e-01 -8.614046573638916016e-01 -7.646317481994628906e-01 -7.176668643951416016e-01 -7.115403413772583008e-01 -7.831441164016723633e-01 -7.529397010803222656e-01 -7.264179587364196777e-01 -7.299186587333679199e-01 -7.755273580551147461e-01 -7.522234320640563965e-01 -7.471904754638671875e-01 -7.701413035392761230e-01 -7.752814292907714844e-01 -7.889277338981628418e-01 -8.393031954765319824e-01 -9.656950235366821289e-01 -9.927594661712646484e-01 -9.503570199012756348e-01 -7.721536159515380859e-01 -7.674692869186401367e-01 -9.272999763488769531e-01 -9.520581364631652832e-01 -9.393114447593688965e-01 -8.400657773017883301e-01 -4.387495517730712891e-01 -3.496947884559631348e-01 -3.634815514087677002e-01 -4.257525205612182617e-01 -6.767968535423278809e-01 -7.692038416862487793e-01 -7.950437664985656738e-01 -7.981430292129516602e-01 -8.345601558685302734e-01 -8.278847336769104004e-01 -8.374335765838623047e-01 -8.373327851295471191e-01 -8.251426815986633301e-01 -8.454080820083618164e-01 -8.589356541633605957e-01 -8.297972679138183594e-01 -8.511161804199218750e-01 -8.588318228721618652e-01 -8.269661068916320801e-01 -8.183554410934448242e-01 -8.483457565307617188e-01 -8.812215328216552734e-01 -9.482246637344360352e-01 -9.382511377334594727e-01 -8.270151019096374512e-01 -8.318213224411010742e-01
-8.510836362838745117e-01 -8.678800463676452637e-01 -8.971562981605529785e-01 -9.311957359313964844e-01 -9.329954385757446289e-01 -9.105730056762695312e-01 -8.702436685562133789e-01 -8.114355206489562988e-01 -8.062738180160522461e-01 -8.186869621276855469e-01 -8.892199993133544922e-01 -8.381639122962951660e-01 -7.166219949722290039e-01 -6.997711062431335449e-01 -7.726654410362243652e-01 -6.769675612449645996e-01 -7.135791778564453125e-01 -7.399555444717407227e-01 -7.951709628105163574e-01 -7.666134834289550781e-01 -7.618558406829833984e-01 -7.892403602600097656e-01 -7.954648733139038086e-01 -8.147684931755065918e-01 -8.265652060508728027e-01 -9.418320059776306152e-01 -9.621091485023498535e-01 -9.499544501304626465e-01 -9.104248285293579102e-01 -9.137179255485534668e-01 -9.802335500717163086e-01 -9.675708413124084473e-01 -9.437145590782165527e-01 -7.978161573410034180e-01 -4.296129345893859863e-01 -3.503004908561706543e-01 -3.509241044521331787e-01 -4.094356298446655273e-01 -7.132766246795654297e-01 -7.924306392669677734e-01 -7.936779856681823730e-01 -8.079158067703247070e-01 -8.294686675071716309e-01 -8.433327674865722656e-01 -8.463346362113952637e-01 -8.429638147354125977e-01 -8.395872712135314941e-01 -8.439339995384216309e-01 -8.345544338226318359e-01 -8.313586115837097168e-01 -8.530617356300354004e-01 -8.655777573585510254e-01 -8.205385208129882812e-01 -8.249877691268920898e-01 -8.589450120925903320e-01 -8.889143466949462891e-01 -9.383828043937683105e-01 -9.244493246078491211e-01 -8.281770348548889160e-01 -8.363243341445922852e-01
-8.561970591545104980e-01 -8.757371306419372559e-01 -9.045203924179077148e-01 -9.393669366836547852e-01 -9.401085376739501953e-01 -9.183937907218933105e-01 -8.541445136070251465e-01 -7.096050977706909180e-01 -7.864381670951843262e-01 -8.010341525077819824e-01 -7.710534930229187012e-01 -6.598306298255920410e-01 -5.838066339492797852e-01 -6.891775131225585938e-01 -7.875000834465026855e-01 -6.883360743522644043e-01 -7.328239679336547852e-01 -7.568660974502563477e-01 -8.142715692520141602e-01 -7.848884463310241699e-01 -7.859899401664733887e-01 -8.281625509262084961e-01 -8.140663504600524902e-01 -8.282209038734436035e-01 -8.174881935119628906e-01 -8.343692421913146973e-01 -8.107842206954956055e-01 -7.970248460769653320e-01 -7.829777002334594727e-01 -7.896168231964111328e-01 -9.301572442054748535e-01 -9.594457745552062988e-01 -9.162072539329528809e-01 -5.974035859107971191e-01 -3.892556726932525635e-01 -3.578266799449920654e-01 -3.374331891536712646e-01 -3.348104357719421387e-01 -6.999468207359313965e-01 -8.103353977203369141e-01 -8.157796263694763184e-01 -8.317488431930541992e-01 -8.380893468856811523e-01 -8.472177386283874512e-01 -8.442323207855224609e-01 -8.314481377601623535e-01 -8.403831720352172852e-01 -8.548852205276489258e-01 -8.340340256690979004e-01 -8.456388115882873535e-01 -8.501574397087097168e-01 -8.152451515197753906e-01 -8.090727925300598145e-01 -8.381033539772033691e-01 -8.690910339355468750e-01 -9.247218966484069824e-01 -9.271212816238403320e-01 -8.431473970413208008e-01 -8.244664669036865234e-01 -8.432682752609252930e-01
-8.611070513725280762e-01 -8.839935064315795898e-01 -9.128697514533996582e-01 -9.430187940597534180e-01 -9.522739052772521973e-01 -9.171941280364990234e-01 -8.521208167076110840e-01 -8.131072521209716797e-01 -8.101726174354553223e-01 -7.931742072105407715e-01 -6.791003346443176270e-01 -1.893870085477828979e-01 -3.123610094189643860e-02 -5.869368314743041992e-01 -8.211497664451599121e-01 -7.966143488883972168e-01 -7.701449394226074219e-01 -7.760108709335327148e-01 -8.321492671966552734e-01 -8.094052076339721680e-01 -8.096662759780883789e-01 -8.557718396186828613e-01 -8.312108516693115234e-01 -8.242865204811096191e-01 -8.061608076095581055e-01 -8.197668194770812988e-01 -7.978783845901489258e-01 -7.772130370140075684e-01 -7.518727779388427734e-01 -7.469490766525268555e-01 -7.712641954421997070e-01 -7.877065539360046387e-01 -8.512460589408874512e-01 -5.795823335647583008e-01 -4.530444741249084473e-01 -3.747328519821166992e-01 -3.375861346721649170e-01 -3.252333402633666992e-01 -6.970400810241699219e-01 -8.209692835807800293e-01 -8.485345840454101562e-01 -8.869955539703369141e-01 -8.805085420608520508e-01 -8.591626882553100586e-01 -8.486506938934326172e-01 -8.398951888084411621e-01 -8.717688322067260742e-01 -8.983864188194274902e-01 -8.483300805091857910e-01 -8.585119843482971191e-01 -8.772829771041870117e-01 -8.279568552970886230e-01 -8.199030756950378418e-01 -8.531979322433471680e-01 -8.747494816780090332e-01 -9.350109696388244629e-01 -9.433090090751647949e-01 -8.318898081779479980e-01 -8.324640989303588867e-01 -8.523584008216857910e-01
-8.695266246795654297e-01 -8.948231339454650879e-01 -9.303156733512878418e-01 -9.478603601455688477e-01 -9.556674957275390625e-01 -8.647211790084838867e-01 -7.344881892204284668e-01 -7.892983555793762207e-01 -7.976903319358825684e-01 -7.974224090576171875e-01 -6.603884100914001465e-01 7.813706248998641968e-02 2.911811880767345428e-02 -5.927737355232238770e-01 -8.378514647483825684e-01 -8.323126435279846191e-01 -7.899169325828552246e-01 -7.926437854766845703e-01 -8.639929890632629395e-01 -8.374136090278625488e-01 -8.392749428749084473e-01 -8.845459818840026855e-01 -8.570107817649841309e-01 -8.231037855148315430e-01 -7.547515630722045898e-01 -8.316965103149414062e-01 -8.387907743453979492e-01 -7.961404323577880859e-01 -7.711118459701538086e-01 -7.638710737228393555e-01 -7.455725073814392090e-01 -7.410553097724914551e-01 -7.483821511268615723e-01 -7.172460556030273438e-01 -7.882431149482727051e-01 -4.954816997051239014e-01 -3.943386971950531006e-01 -6.490530371665954590e-01 -7.986643910408020020e-01 -8.456862568855285645e-01 -8.989888429641723633e-01 -8.994714617729187012e-01 -8.910432457923889160e-01 -8.779925704002380371e-01 -8.596516251564025879e-01 -8.616863489151000977e-01 -9.046932458877563477e-01 -9.121932983398437500e-01 -8.714140653610229492e-01 -8.798355460166931152e-01 -9.020893573760986328e-01 -8.502561450004577637e-01 -8.395677208900451660e-01 -8.707982301712036133e-01 -9.013369679450988770e-01 -9.507992267608642578e-01 -9.599357843399047852e-01 -8.448665142059326172e-01 -8.454798460006713867e-01 -8.628685474395751953e-01
-8.801182508468627930e-01 -9.041656255722045898e-01 -9.404520392417907715e-01 -9.555910825729370117e-01 -9.302102327346801758e-01 -7.766621112823486328e-01 -8.022485375404357910e-01 -8.130586147308349609e-01 -8.187466263771057129e-01 -8.698772192001342773e-01 -7.826592326164245605e-01 -1.570462584495544434e-01 -5.177302956581115723e-01 -7.463562488555908203e-01 -8.595582246780395508e-01 -8.456019759178161621e-01 -8.173507452011108398e-01 -8.175778388977050781e-01 -8.932936191558837891e-01 -8.625150918960571289e-01 -8.627385497093200684e-01 -9.165810942649841309e-01 -8.835009932518005371e-01 -8.419189453125000000e-01 -8.272911906242370605e-01 -8.781402111053466797e-01 -8.737359642982482910e-01 -8.503575325012207031e-01 -8.101434111595153809e-01 -7.924722433090209961e-01 -7.686027884483337402e-01 -7.624118924140930176e-01 -7.454356551170349121e-01 -7.747105956077575684e-01 -9.081394076347351074e-01 -7.472600340843200684e-01 -4.268025457859039307e-01 -7.580744624137878418e-01 -8.539456129074096680e-01 -8.846660852432250977e-01 -9.286207556724548340e-01 -9.201453924179077148e-01 -9.068679213523864746e-01 -8.963707089424133301e-01 -8.777944445610046387e-01 -8.747460842132568359e-01 -8.615564107894897461e-01 -8.820978999137878418e-01 -8.850254416465759277e-01 -9.121780991554260254e-01 -9.375928640365600586e-01 -8.722839951515197754e-01 -8.581486344337463379e-01 -8.968793153762817383e-01 -9.703590273857116699e-01 -9.787319302558898926e-01 -9.730193018913269043e-01 -8.806981444358825684e-01 -8.622700572013854980e-01 -8.747493624687194824e-01
-8.919725418090820312e-01 -9.148619771003723145e-01 -9.480206966400146484e-01 -9.712997078895568848e-01 nan -9.362310171127319336e-01 -8.964786529541015625e-01 -8.521792292594909668e-01 -8.531545400619506836e-01 -8.841225504875183105e-01 -9.604781270027160645e-01 -8.481544256210327148e-01 -9.109975099563598633e-01 -9.206131696701049805e-01 -9.066804051399230957e-01 -8.709117770195007324e-01 -8.433558344841003418e-01 -8.585539460182189941e-01 -9.266449213027954102e-01 -9.033227562904357910e-01 -8.900241851806640625e-01 -9.406911730766296387e-01 -9.333475828170776367e-01 -8.907020688056945801e-01 -8.786427378654479980e-01 -8.906185626983642578e-01 -9.048861265182495117e-01 -8.921779990196228027e-01 -8.747453689575195312e-01 -8.293914794921875000e-01 -8.217799067497253418e-01 -8.251230120658874512e-01 -8.275413513183593750e-01 -8.375853896141052246e-01 -8.750102519989013672e-01 -8.540473580360412598e-01 -7.882336378097534180e-01 -8.776100277900695801e-01 -9.075242280960083008e-01 -9.454281330108642578e-01 -9.617817401885986328e-01 -9.380373954772949219e-01 -9.211974740028381348e-01 -9.019548296928405762e-01 -9.016708731651306152e-01 -9.286919236183166504e-01 -8.859922289848327637e-01 -8.882533311843872070e-01 -9.017556905746459961e-01 -9.320398569107055664e-01 -9.613717794418334961e-01 -8.917260169982910156e-01 -8.737720847129821777e-01 -9.100757837295532227e-01 -9.851970672607421875e-01 -9.944295883178710938e-01 -1.006364703178405762e+00 -9.838194847106933594e-01 -8.859747648239135742e-01 -8.861097693443298340e-01
-9.047520160675048828e-01 -9.233323931694030762e-01 -9.529830217361450195e-01 -9.765460491180419922e-01 nan -9.717442393302917480e-01 -9.307028651237487793e-01 -8.952274322509765625e-01 -8.721662163734436035e-01 -8.893214464187622070e-01 -1.014202713966369629e+00 -1.020267844200134277e+00 -9.888260960578918457e-01 -9.486303925514221191e-01 -9.279954433441162109e-01 -8.870932459831237793e-01 -8.830947875976562500e-01 -9.585781693458557129e-01 -9.402326941490173340e-01 -9.208278059959411621e-01 -9.067604541778564453e-01 -9.164620637893676758e-01 -9.521756768226623535e-01 -9.404454231262207031e-01 -9.063851237297058105e-01 -8.973289132118225098e-01 -9.040561914443969727e-01 -9.262484312057495117e-01 -9.195206761360168457e-01 -9.047957658767700195e-01 -9.083085060119628906e-01 -8.849340677261352539e-01 -8.822308778762817383e-01 -8.903713226318359375e-01 -8.995577096939086914e-01 -9.035721421241760254e-01 -9.260615110397338867e-01 -9.669252038002014160e-01 -9.656428098678588867e-01 -9.644347429275512695e-01 -9.653557538986206055e-01 -9.576804637908935547e-01 -9.257477521896362305e-01 -9.133121967315673828e-01 -9.335955977439880371e-01 -9.542958736419677734e-01 -9.064844250679016113e-01 -9.155735969543457031e-01 -9.238609075546264648e-01 -9.641658663749694824e-01 -9.679340720176696777e-01 -9.041768908500671387e-01 -8.918463587760925293e-01 -9.258745908737182617e-01 -9.980309009552001953e-01 -1.011487841606140137e+00 -1.053649425506591797e+00 -1.012623548507690430e+00 -9.005493521690368652e-01 -8.981699943542480469e-01
-9.205251336097717285e-01 -9.415875077247619629e-01 -9.733374118804931641e-01 -9.901457428932189941e-01 -1.009914636611938477e+00 -9.740768671035766602e-01 -9.461840987205505371e-01 -9.157279133796691895e-01 -8.886945843696594238e-01 -9.250695109367370605e-01 -1.037717223167419434e+00 -1.045604109764099121e+00 -9.962591528892517090e-01 -8.887178301811218262e-01 -9.269522428512573242e-01 -9.061964750289916992e-01 -9.152683615684509277e-01 -9.832643270492553711e-01 -8.640208244323730469e-01 -9.248619675636291504e-01 -9.302593469619750977e-01 -9.111739397048950195e-01 -9.237920045852661133e-01 -9.709843397140502930e-01 -9.522206187248229980e-01 -9.188244342803955078e-01 -9.123384952545166016e-01 -9.272240996360778809e-01 -9.542347192764282227e-01 -9.478781819343566895e-01 -9.483436942100524902e-01 -9.446277022361755371e-01 -9.294925332069396973e-01 -9.369734525680541992e-01 -9.472770690917968750e-01 -9.568315148353576660e-01 -9.954648613929748535e-01 -9.916918873786926270e-01 -9.758341908454895020e-01 -9.745888113975524902e-01 -9.783989191055297852e-01 -1.000695347785949707e+00 -9.514585137367248535e-01 -9.568167924880981445e-01 -9.920513629913330078e-01 -9.478109478950500488e-01 -9.288032650947570801e-01 -9.370229244232177734e-01 -9.461851119995117188e-01 -9.750149846076965332e-01 -9.127715826034545898e-01 -8.958474993705749512e-01 -9.162170886993408203e-01 -9.456086158752441406e-01 -1.021987915039062500e+00 -1.029016613960266113e+00 -1.042777538299560547e+00 -9.386557340621948242e-01 -8.953345417976379395e-01 -9.155132174491882324e-01
-9.368116259574890137e-01 -9.586634039878845215e-01 -9.834235906600952148e-01 -1.010976910591125488e+00 -1.010810256004333496e+00 -9.846681952476501465e-01 -9.603508114814758301e-01 -9.377039074897766113e-01 -9.367816448211669922e-01 -1.044944167137145996e+00 -1.044338107109069824e+00 -1.026972651481628418e+00 -1.030515551567077637e+00 -9.855324625968933105e-01 -9.618218541145324707e-01 -9.438254237174987793e-01 -9.680967926979064941e-01 -1.020233631134033203e+00 -8.793571591377258301e-01 -9.727193713188171387e-01 -9.675456285476684570e-01 -9.545256495475769043e-01 -9.323834776878356934e-01 -9.651733636856079102e-01 -9.593672752380371094e-01 -9.613608121871948242e-01 -9.366387724876403809e-01 -9.344277977943420410e-01 -9.607923626899719238e-01 -1.006884813308715820e+00 -1.008172869682312012e+00 -9.918203949928283691e-01 -9.946253895759582520e-01 -1.001787662506103516e+00 -1.010767102241516113e+00 -1.014453887939453125e+00 -1.015814304351806641e+00 -1.007643461227416992e+00 -1.007768154144287109e+00 -1.009582400321960449e+00 -9.891863465309143066e-01 -9.852201938629150391e-01 -9.758722186088562012e-01 -1.028205752372741699e+00 -1.023963809013366699e+00 -9.728943705558776855e-01 -9.602631330490112305e-01 -9.625388383865356445e-01 -9.829803109169006348e-01 -1.012383818626403809e+00 -9.196965694427490234e-01 -9.105930328369140625e-01 -9.407666325569152832e-01 -9.696832299232482910e-01 -1.046963810920715332e+00 -1.044125318527221680e+00 -1.053253054618835449e+00 -9.468010067939758301e-01 -9.075057506561279297e-01 -9.281997084617614746e-01
-9.519568681716918945e-01 -9.674732089042663574e-01 -9.880163073539733887e-01 -1.019445300102233887e+00 -1.023972153663635254e+00 -1.003592252731323242e+00 -9.625378251075744629e-01 -9.539942145347595215e-01 -9.882547855377197266e-01 -1.071807622909545898e+00 -9.415593743324279785e-01 -9.405167102813720703e-01 -1.034271717071533203e+00 -1.030108928680419922e+00 -9.869144558906555176e-01 -9.932623505592346191e-01 -1.084621191024780273e+00 -1.075517416000366211e+00 -9.394595026969909668e-01 -1.009696125984191895e+00 -1.022634267807006836e+00 -1.048723101615905762e+00 -9.537100791931152344e-01 -8.301038146018981934e-01 -8.474683165550231934e-01 -9.900389909744262695e-01 -9.945107698440551758e-01 -9.710646271705627441e-01 -9.848278164863586426e-01 -1.051142334938049316e+00 -1.057782649993896484e+00 -1.058866858482360840e+00 -1.048695445060729980e+00 -1.040827870368957520e+00 -1.043228983879089355e+00 -1.044180035591125488e+00 -1.047418832778930664e+00 -1.066816687583923340e+00 -1.070491552352905273e+00 -1.030601143836975098e+00 -1.000220894813537598e+00 -9.952037334442138672e-01 -1.012760043144226074e+00 -1.036259889602661133e+00 -9.910725355148315430e-01 -9.682522416114807129e-01 -9.698362350463867188e-01 -9.876747131347656250e-01 -1.040759444236755371e+00 -1.048349857330322266e+00 -9.352811574935913086e-01 -9.305704832077026367e-01 -9.598362445831298828e-01 -9.865551590919494629e-01 -1.047256946563720703e+00 -1.065565347671508789e+00 -1.064797997474670410e+00 -1.030620932579040527e+00 -9.378141760826110840e-01 -9.471063613891601562e-01
-9.653123617172241211e-01 -9.831075072288513184e-01 -1.003597021102905273e+00 -1.032227039337158203e+00 -1.029493570327758789e+00 -9.838111996650695801e-01 -9.547849297523498535e-01 -9.917296767234802246e-01 -1.131226539611816406e+00 -1.131685137748718262e+00 -9.676635861396789551e-01 -1.038814306259155273e+00 -1.080973625183105469e+00 -1.055177569389343262e+00 -1.015737533569335938e+00 -1.019940972328186035e+00 -1.109348297119140625e+00 -1.127169847488403320e+00 -1.085855722427368164e+00 -1.045793294906616211e+00 -1.037443637847900391e+00 -9.648005962371826172e-01 -8.865357041358947754e-01 -8.202178478240966797e-01 -9.253692626953125000e-01 -1.050301671028137207e+00 -1.051956892013549805e+00 -1.034568428993225098e+00 -1.008933544158935547e+00 -1.017622470855712891e+00 -1.039071798324584961e+00 -1.100032210350036621e+00 -1.100609302520751953e+00 -1.086625218391418457e+00 -1.091470837593078613e+00 -1.114258170127868652e+00 -1.126614809036254883e+00 -1.136332869529724121e+00 -1.067065238952636719e+00 -1.031965255737304688e+00 -1.020840883255004883e+00 -1.031489372253417969e+00 -1.040507197380065918e+00 -1.010460376739501953e+00 -9.883134365081787109e-01 -9.752063155174255371e-01 -9.903725981712341309e-01 -1.049376845359802246e+00 -1.111194968223571777e+00 -1.068182110786437988e+00 -8.830122947692871094e-01 -9.395046830177307129e-01 -9.857137203216552734e-01 -1.012094616889953613e+00 -1.056018352508544922e+00 -1.051875948905944824e+00 -9.360252618789672852e-01 -9.602916240692138672e-01 -9.430745840072631836e-01 -9.660656452178955078e-01
-9.792709350585937500e-01 -1.000700712203979492e+00 -1.021724939346313477e+00 -1.054681897163391113e+00 -1.005657911300659180e+00 -8.726522326469421387e-01 -9.698157906532287598e-01 -1.019201397895812988e+00 -1.169983744621276855e+00 -1.163662552833557129e+00 -1.014791607856750488e+00 -1.110377192497253418e+00 -1.115549206733703613e+00 -1.078485846519470215e+00 -1.040408611297607422e+00 -1.027588725090026855e+00 -1.053926587104797363e+00 -1.144407272338867188e+00 -1.096670031547546387e+00 -9.839944839477539062e-01 -1.005931496620178223e+00 -7.666084170341491699e-01 -2.038437873125076294e-01 -5.800058245658874512e-01 -9.530482292175292969e-01 -1.091932892799377441e+00 -1.101315140724182129e+00 -1.087593436241149902e+00 -1.059060692787170410e+00 -1.033805608749389648e+00 -1.036818742752075195e+00 -1.064428448677062988e+00 -1.063312530517578125e+00 -1.077289938926696777e+00 -1.103171348571777344e+00 -1.191814899444580078e+00 -1.182363390922546387e+00 -1.101227760314941406e+00 -1.058836817741394043e+00 -1.052068233489990234e+00 -1.075837731361389160e+00 -1.079778075218200684e+00 -9.672073721885681152e-01 -9.942464232444763184e-01 -1.006155610084533691e+00 -1.007732868194580078e+00 -1.058761358261108398e+00 -1.142274618148803711e+00 -1.146061062812805176e+00 -1.050999283790588379e+00 -8.796511888504028320e-01 -9.639642834663391113e-01 -1.017581582069396973e+00 -1.047358036041259766e+00 -1.054537892341613770e+00 -9.413601160049438477e-01 -9.144879579544067383e-01 -9.364924430847167969e-01 -9.426792263984680176e-01 -9.571616649627685547e-01
-9.688208103179931641e-01 -1.014941811561584473e+00 -1.044695138931274414e+00 -1.070451855659484863e+00 -1.061814308166503906e+00 -1.010326147079467773e+00 -1.018644928932189941e+00 -1.027309894561767578e+00 -1.136917471885681152e+00 -1.194794893264770508e+00 -1.165036678314208984e+00 -1.168838381767272949e+00 -1.145797848701477051e+00 -1.109809994697570801e+00 -1.071428656578063965e+00 -1.045327544212341309e+00 -1.053818702697753906e+00 -1.157595753669738770e+00 -1.023407459259033203e+00 -9.426399469375610352e-01 -9.021227359771728516e-01 -6.510971188545227051e-01 -6.871686130762100220e-02 -1.917975097894668579e-01 -8.494573235511779785e-01 -1.044575214385986328e+00 -1.119917511940002441e+00 -1.135319948196411133e+00 -1.120353817939758301e+00 -1.096431970596313477e+00 -1.075586080551147461e+00 -1.078053116798400879e+00 -1.115350723266601562e+00 -1.211489796638488770e+00 -1.214223265647888184e+00 -1.153643250465393066e+00 -1.121276378631591797e+00 -1.088948369026184082e+00 -1.088721752166748047e+00 -1.109948158264160156e+00 -1.151281237602233887e+00 -1.132990241050720215e+00 -1.039112925529479980e+00 -1.032707452774047852e+00 -1.027142882347106934e+00 -1.053026199340820312e+00 -1.135860204696655273e+00 -1.185096621513366699e+00 -1.120813727378845215e+00 -9.352102279663085938e-01 -8.946110606193542480e-01 -9.918884634971618652e-01 -1.036962866783142090e+00 -1.067640066146850586e+00 -1.081251502037048340e+00 -1.011200308799743652e+00 -1.073462128639221191e+00 -9.705154895782470703e-01 -9.356532096862792969e-01 -8.602141141891479492e-01
-9.839843511581420898e-01 -1.028308987617492676e+00 -1.066729187965393066e+00 -1.079100847244262695e+00 -1.092264175415039062e+00 -1.064429521560668945e+00 -1.037796020507812500e+00 -1.018154025077819824e+00 -1.081003665924072266e+00 -1.204080700874328613e+00 -1.224739551544189453e+00 -1.200938940048217773e+00 -1.170619010925292969e+00 -1.134808421134948730e+00 -1.100410223007202148e+00 -1.077414035797119141e+00 -1.086918950080871582e+00 -1.184707999229431152e+00 -1.056176185607910156e+00 -9.884848594665527344e-01 -7.976104617118835449e-01 -3.489998281002044678e-01 -6.332228779792785645e-01 -7.386378645896911621e-01 -8.941039443016052246e-01 -1.017075657844543457e+00 -1.079832077026367188e+00 -1.160424113273620605e+00 -1.176558732986450195e+00 -1.167535543441772461e+00 -1.143442392349243164e+00 -1.124622225761413574e+00 -1.134123444557189941e+00 -1.163069009780883789e+00 -1.162634015083312988e+00 -1.142868876457214355e+00 -1.132438063621520996e+00 -1.136323451995849609e+00 -1.158631682395935059e+00 -1.196209549903869629e+00 -1.197305560111999512e+00 -1.123988032341003418e+00 -1.075106859207153320e+00 -1.056901574134826660e+00 -1.059105515480041504e+00 -1.090652823448181152e+00 -1.165324330329895020e+00 -1.150441288948059082e+00 -1.044438838958740234e+00 -1.007672190666198730e+00 -1.028539896011352539e+00 -1.048621654510498047e+00 -1.064135313034057617e+00 -1.094655036926269531e+00 -1.141186356544494629e+00 -1.163049578666687012e+00 -1.134082555770874023e+00 -1.009802341461181641e+00 -9.607021808624267578e-01 -8.735174536705017090e-01
-1.024539232254028320e+00 -1.043876767158508301e+00 -1.079523921012878418e+00 -1.091475725173950195e+00 -1.103584647178649902e+00 -1.083424568176269531e+00 -1.060273170471191406e+00 -1.077390670776367188e+00 -1.214728236198425293e+00 -1.214092612266540527e+00 -1.208632111549377441e+00 -1.213508605957031250e+00 -1.191052556037902832e+00 -1.151473045349121094e+00 -1.128831148147583008e+00 -1.116604447364807129e+00 -1.121437430381774902e+00 -1.213077068328857422e+00 -1.192718386650085449e+00 -1.116072177886962891e+00 -7.814759612083435059e-01 -1.994920521974563599e-01 -7.691875100135803223e-01 -9.211862087249755859e-01 -9.522694945335388184e-01 -1.049290895462036133e+00 -1.077759265899658203e+00 -1.116170048713684082e+00 -1.187506794929504395e+00 -1.209288716316223145e+00 -1.208480596542358398e+00 -1.197003602981567383e+00 -1.195649862289428711e+00 -1.187308549880981445e+00 -1.185889363288879395e+00 -1.198229789733886719e+00 -1.200614452362060547e+00 -1.212248086929321289e+00 -1.237332820892333984e+00 -1.232346534729003906e+00 -1.157347559928894043e+00 -1.110631704330444336e+00 -1.091845512390136719e+00 -1.090167999267578125e+00 -1.105376958847045898e+00 -1.069075226783752441e+00 -1.151828050613403320e+00 -1.057791590690612793e+00 -9.453577399253845215e-01 -1.031488895416259766e+00 -1.064099788665771484e+00 -1.071382284164428711e+00 -1.096068620681762695e+00 -1.127014279365539551e+00 -1.174272537231445312e+00 -1.182943940162658691e+00 -1.051241278648376465e+00 -1.006213903427124023e+00 -1.012626409530639648e+00 -9.958002567291259766e-01
-1.043982028961181641e+00 -1.061192750930786133e+00 -1.097901940345764160e+00 -1.112108469009399414e+00 -1.113829612731933594e+00 -1.098479032516479492e+00 -1.120626211166381836e+00 -1.269754290580749512e+00 -1.278071999549865723e+00 -1.091641545295715332e+00 -1.055297255516052246e+00 -1.174204111099243164e+00 -1.210275411605834961e+00 -1.181587457656860352e+00 -1.148721694946289062e+00 -1.134438753128051758e+00 -1.114042758941650391e+00 -1.087902665138244629e+00 -1.084361433982849121e+00 -1.029366612434387207e+00 -8.200770616531372070e-01 -7.123198509216308594e-01 -9.012713432312011719e-01 -9.418160319328308105e-01 -1.093630552291870117e+00 -1.126605868339538574e+00 -1.105725169181823730e+00 -1.098785877227783203e+00 -1.078572511672973633e+00 -1.101024031639099121e+00 -1.204494118690490723e+00 -1.226430773735046387e+00 -1.252322554588317871e+00 -1.256518363952636719e+00 -1.245422124862670898e+00 -1.231025695800781250e+00 -1.241412401199340820e+00 -1.273923993110656738e+00 -1.266804218292236328e+00 -1.167893648147583008e+00 -1.128103733062744141e+00 -1.122123718261718750e+00 -1.119510412216186523e+00 -1.132822155952453613e+00 -1.158301234245300293e+00 -1.103548526763916016e+00 -1.156171560287475586e+00 -1.077000141143798828e+00 -1.046751141548156738e+00 -1.073473334312438965e+00 -1.091916441917419434e+00 -1.100366592407226562e+00 -1.134801030158996582e+00 -1.147917389869689941e+00 -1.102530121803283691e+00 -1.175826787948608398e+00 -1.053339004516601562e+00 -1.024255514144897461e+00 -1.028285980224609375e+00 -1.032909393310546875e+00
-1.064068555831909180e+00 -1.079475522041320801e+00 -1.117141246795654297e+00 -1.144628047943115234e+00 -1.137967228889465332e+00 -1.114064931869506836e+00 -1.132778167724609375e+00 -1.290042877197265625e+00 -1.282128453254699707e+00 -1.145326972007751465e+00 -1.084553956985473633e+00 -1.080792903900146484e+00 -1.210452198982238770e+00 -1.220433235168457031e+00 -1.186230540275573730e+00 -1.150100708007812500e+00 -1.104302883148193359e+00 -9.934844374656677246e-01 -1.017797350883483887e+00 -9.878773689270019531e-01 -8.730995059013366699e-01 -9.175645112991333008e-01 -9.343693256378173828e-01 -8.579846620559692383e-01 -1.138849258422851562e+00 -1.180925250053405762e+00 -1.155447363853454590e+00 -1.139997124671936035e+00 -1.123160958290100098e+00 -1.078071832656860352e+00 -1.105129837989807129e+00 -1.136634469032287598e+00 -1.260534048080444336e+00 -1.283728003501892090e+00 -1.263634204864501953e+00 -1.198462724685668945e+00 -1.201486349105834961e+00 -1.281213879585266113e+00 -1.215025186538696289e+00 -1.150748968124389648e+00 -1.138823270797729492e+00 -1.139321208000183105e+00 -1.136945605278015137e+00 -1.162139654159545898e+00 -1.136214852333068848e+00 -1.168186306953430176e+00 -1.100510001182556152e+00 -1.067389369010925293e+00 -1.086275577545166016e+00 -1.104558587074279785e+00 -1.109797835350036621e+00 -1.121396899223327637e+00 -1.155010581016540527e+00 -1.194935679435729980e+00 -1.206139445304870605e+00 -1.178730845451354980e+00 -1.057232737541198730e+00 -1.031647205352783203e+00 -1.037885308265686035e+00 -1.052271604537963867e+00
-1.093705654144287109e+00 -1.107079267501831055e+00 -1.133414387702941895e+00 -1.162469029426574707e+00 -1.157701730728149414e+00 -1.130193948745727539e+00 -1.093952059745788574e+00 -1.167911767959594727e+00 -1.189148306846618652e+00 -1.254316926002502441e+00 -1.284189105033874512e+00 -1.263417720794677734e+00 -1.264231681823730469e+00 -1.217918634414672852e+00 -1.209127068519592285e+00 -1.184163451194763184e+00 -1.160987257957458496e+00 -1.097486972808837891e+00 -9.577738642692565918e-01 -9.097337722778320312e-01 -8.868810534477233887e-01 -7.684766650199890137e-01 -9.013726115226745605e-01 -1.126831650733947754e+00 -1.230584502220153809e+00 -1.226010918617248535e+00 -1.205255389213562012e+00 -1.187541127204895020e+00 -1.179733633995056152e+00 -1.176181197166442871e+00 -1.169692516326904297e+00 -1.153087615966796875e+00 -1.180939197540283203e+00 -1.189248800277709961e+00 -1.213139414787292480e+00 -1.309287309646606445e+00 -1.305021405220031738e+00 -1.226096391677856445e+00 -1.186144590377807617e+00 -1.172958850860595703e+00 -1.175485372543334961e+00 -1.155284166336059570e+00 -1.108228564262390137e+00 -1.196525216102600098e+00 -1.184024810791015625e+00 -1.082715749740600586e+00 -1.042608499526977539e+00 -9.947105646133422852e-01 -1.086248755455017090e+00 -1.124605298042297363e+00 -1.136658310890197754e+00 -1.174771308898925781e+00 -1.178349733352661133e+00 -1.121855378150939941e+00 -1.175563454627990723e+00 -1.065571188926696777e+00 -1.018474698066711426e+00 -1.032787680625915527e+00 -1.048112034797668457e+00 -1.072027802467346191e+00
-1.070312619209289551e+00 -1.090819954872131348e+00 -1.141662359237670898e+00 -1.173969864845275879e+00 -1.178943991661071777e+00 -1.128706455230712891e+00 -1.015214920043945312e+00 -1.223768234252929688e+00 -1.277163624763488770e+00 -1.182342767715454102e+00 -1.156918048858642578e+00 -1.299268603324890137e+00 -1.278277993202209473e+00 -1.128139376640319824e+00 -1.214989900588989258e+00 -1.221776843070983887e+00 -1.193695545196533203e+00 -1.127081394195556641e+00 -9.066362380981445312e-01 -9.225188493728637695e-01 -8.929229378700256348e-01 -7.489831447601318359e-01 -9.465162158012390137e-01 -1.243755221366882324e+00 -1.289231657981872559e+00 -1.273645281791687012e+00 -1.249620318412780762e+00 -1.232657194137573242e+00 -1.215563535690307617e+00 -1.223717212677001953e+00 -1.224880218505859375e+00 -1.221255898475646973e+00 -1.220669150352478027e+00 -1.224687576293945312e+00 -1.232325196266174316e+00 -1.250830531120300293e+00 -1.238785862922668457e+00 -1.206191897392272949e+00 -1.207008481025695801e+00 -1.212149024009704590e+00 -1.182620763778686523e+00 -1.133447885513305664e+00 -1.172821998596191406e+00 -1.095789432525634766e+00 -1.025463700294494629e+00 -8.664104342460632324e-01 -9.248267412185668945e-01 -1.076483964920043945e+00 -1.131788253784179688e+00 -1.151350378990173340e+00 -1.182210206985473633e+00 -1.216659784317016602e+00 -1.230308651924133301e+00 -1.181539177894592285e+00 -1.085879921913146973e+00 -1.029397368431091309e+00 -1.028186678886413574e+00 -1.047649860382080078e+00 -1.071018338203430176e+00 -1.081004500389099121e+00
-9.282798767089843750e-01 -9.475765824317932129e-01 -1.135371088981628418e+00 nan -1.197816848754882812e+00 -1.141362786293029785e+00 -9.247453212738037109e-01 -8.010245561599731445e-01 -9.307926297187805176e-01 -9.152653217315673828e-01 -4.081168770790100098e-01 -9.965460300445556641e-01 -1.303170204162597656e+00 -1.283476352691650391e+00 -1.276651501655578613e+00 -1.256097078323364258e+00 -1.223098754882812500e+00 -1.182099461555480957e+00 -1.028886914253234863e+00 -7.907776832580566406e-01 -6.897615790367126465e-01 -7.547052502632141113e-01 -1.057518601417541504e+00 -1.260316371917724609e+00 -1.295602917671203613e+00 -1.309794664382934570e+00 -1.300566077232360840e+00 -1.282713890075683594e+00 -1.269236922264099121e+00 -1.260512351989746094e+00 -1.251973748207092285e+00 -1.251986742019653320e+00 -1.255695223808288574e+00 -1.252941250801086426e+00 -1.251750469207763672e+00 -1.244391083717346191e+00 -1.239178776741027832e+00 -1.246108651161193848e+00 -1.256313562393188477e+00 -1.228143692016601562e+00 -1.156685233116149902e+00 -1.206198573112487793e+00 -1.113635540008544922e+00 -8.952407240867614746e-01 -8.289285302162170410e-01 -8.644287586212158203e-01 -9.558331370353698730e-01 -1.128327488899230957e+00 -1.161406397819519043e+00 -1.158819913864135742e+00 -1.145206212997436523e+00 -1.075272798538208008e+00 -1.095418453216552734e+00 -1.082335829734802246e+00 -1.048436760902404785e+00 -1.040620088577270508e+00 -1.044642329216003418e+00 -1.062172412872314453e+00 -1.083679914474487305e+00 -1.081562161445617676e+00
-9.162152409553527832e-01 -9.582106471061706543e-01 -1.152979612350463867e+00 -1.231117367744445801e+00 -1.182864069938659668e+00 -8.743387460708618164e-01 -1.825790256261825562e-01 -2.110364614054560661e-03 -3.395372629165649414e-02 -3.943142294883728027e-02 4.173683002591133118e-02 -3.817587196826934814e-01 -1.003530263900756836e+00 -1.113523125648498535e+00 -1.122878432273864746e+00 -1.250617027282714844e+00 -1.251482367515563965e+00 -1.124027132987976074e+00 -7.873375415802001953e-01 -2.350562810897827148e-01 -2.108616828918457031e-01 -7.535672783851623535e-01 -1.102286100387573242e+00 -1.122505068778991699e+00 -1.194592237472534180e+00 -1.287495970726013184e+00 -1.312436461448669434e+00 -1.329207301139831543e+00 -1.318255186080932617e+00 -1.307984590530395508e+00 -1.300806164741516113e+00 -1.298008680343627930e+00 -1.293720483779907227e+00 -1.290853619575500488e+00 -1.290677309036254883e+00 -1.290856361389160156e+00 -1.296411156654357910e+00 -1.304181456565856934e+00 -1.290742516517639160e+00 -1.196212530136108398e+00 -1.232854843139648438e+00 -1.164370894432067871e+00 -1.034847378730773926e+00 -8.066461682319641113e-01 -8.898971080780029297e-01 -9.690394997596740723e-01 -1.110876321792602539e+00 -1.180012106895446777e+00 -1.150662660598754883e+00 -1.004327774047851562e+00 -1.003252029418945312e+00 -1.050907850265502930e+00 -1.170821309089660645e+00 -1.085915088653564453e+00 -1.050282478332519531e+00 -1.045910716056823730e+00 -1.023333549499511719e+00 -1.015552639961242676e+00 -9.466024041175842285e-01 -1.045789361000061035e+00
-9.669470191001892090e-01 -1.143967390060424805e+00 nan -1.248209834098815918e+00 -8.821879029273986816e-01 -1.723392605781555176e-01 1.365238577127456665e-01 1.678176820278167725e-01 1.654726862907409668e-01 1.611697226762771606e-01 -1.881752349436283112e-02 -6.544365882873535156e-01 -2.275661379098892212e-01 -8.630690723657608032e-02 -2.490364760160446167e-01 -9.840514659881591797e-01 -1.175065040588378906e+00 -1.067957282066345215e+00 -1.122428655624389648e+00 -1.032430887222290039e+00 -1.003139019012451172e+00 -1.115361690521240234e+00 -1.169769048690795898e+00 -1.153773903846740723e+00 -1.271245598793029785e+00 -1.175287723541259766e+00 -1.218599677085876465e+00 -1.321936964988708496e+00 -1.336782455444335938e+00 -1.357006669044494629e+00 -1.357159495353698730e+00 -1.351391434669494629e+00 -1.346775174140930176e+00 -1.344015121459960938e+00 -1.345826268196105957e+00 -1.349344491958618164e+00 -1.349657058715820312e+00 -1.343119621276855469e+00 -1.312177658081054688e+00 -1.182877182960510254e+00 -1.178888678550720215e+00 -1.109002590179443359e+00 -8.209053874015808105e-01 -7.903738617897033691e-01 -1.081398606300354004e+00 -1.161150693893432617e+00 -1.201927423477172852e+00 -1.214111685752868652e+00 -1.148502111434936523e+00 -8.762711882591247559e-01 -9.821650385856628418e-01 -1.058954715728759766e+00 -1.127668499946594238e+00 -1.081979990005493164e+00 -1.034039855003356934e+00 -1.033720612525939941e+00 -9.192152023315429688e-01 -8.680348992347717285e-01 -8.611351251602172852e-01 -9.075639247894287109e-01
-1.127023458480834961e+00 nan -1.255995750427246094e+00 -1.256398200988769531e+00 -2.966313958168029785e-01 7.571213692426681519e-02 1.351678967475891113e-01 1.523308604955673218e-01 1.310417801141738892e-01 1.481367349624633789e-01 5.328898876905441284e-02 -1.691400557756423950e-01 8.316688239574432373e-02 1.147810444235801697e-01 -9.228476136922836304e-02 -4.248570501804351807e-01 -9.435929059982299805e-01 -1.088857650756835938e+00 -1.249446511268615723e+00 -1.282928943634033203e+00 -1.270677566528320312e+00 -1.236449480056762695e+00 -1.216774225234985352e+00 -1.206110239028930664e+00 -1.226230621337890625e+00 -1.213164925575256348e+00 -1.334884285926818848e+00 -1.241660237312316895e+00 -1.227654695510864258e+00 -1.369774699211120605e+00 -1.404287815093994141e+00 -1.394640922546386719e+00 -1.388798952102661133e+00 -1.396082520484924316e+00 -1.406808018684387207e+00 -1.404528260231018066e+00 -1.367198109626770020e+00 -1.236356616020202637e+00 -1.200176000595092773e+00 -1.175360679626464844e+00 -1.196485161781311035e+00 -1.129954338073730469e+00 -8.613128662109375000e-01 -1.071085214614868164e+00 -1.207269549369812012e+00 -1.224943161010742188e+00 -1.232656836509704590e+00 -1.242923974990844727e+00 -1.186813831329345703e+00 -9.273380041122436523e-01 -1.019164443016052246e+00 -1.127609133720397949e+00 -1.234489440917968750e+00 -1.099838614463806152e+00 -9.373353123664855957e-01 -1.063377261161804199e+00 -1.050844311714172363e+00 -9.008572101593017578e-01 nan -9.330819249153137207e-01
nan nan -1.258798241615295410e+00 nan -3.537972271442413330e-01 3.124694712460041046e-02 -2.041446231305599213e-02 8.359467238187789917e-02 -1.982863806188106537e-02 7.897822558879852295e-02 -3.079886920750141144e-02 7.843057811260223389e-02 1.497525125741958618e-01 -4.286119341850280762e-02 -8.539959788322448730e-01 nan nan -1.287660241127014160e+00 -1.314707994461059570e+00 -1.314399600028991699e+00 -1.301935076713562012e+00 -1.285255789756774902e+00 -1.263513684272766113e+00 -1.250881791114807129e+00 -1.250669717788696289e+00 nan nan nan nan nan nan -1.437953114509582520e+00 nan -1.433991789817810059e+00 nan nan nan nan nan nan nan -1.207032561302185059e+00 -1.156388282775878906e+00 -1.213202238082885742e+00 -1.231923460960388184e+00 -1.236664414405822754e+00 -1.257419705390930176e+00 -1.273191094398498535e+00 -1.289034605026245117e+00 -1.227055072784423828e+00 nan -1.318184852600097656e+00 nan nan nan -1.113313555717468262e+00 -1.128729701042175293e+00 -1.098448991775512695e+00 nan nan
